0.41780519485473633 0.037371180951595306 -0.17256970703601837
-0.23727408051490784 0.03897448629140854 -0.06718139350414276
0.1405552178621292 -0.07615245133638382 -0.07309029996395111
-0.565646767616272 0.06911171972751617 0.040674541145563126
-0.37184423208236694 0.3015434145927429 0.05452234297990799
0.26926231384277344 0.20076173543930054 0.0924454852938652
0.41983455419540405 -0.16972316801548004 -0.16545048356056213
-0.34192901849746704 -0.2513706684112549 -0.06830399483442307
-0.5570179224014282 -0.029440388083457947 0.0536627471446991
-0.14036259055137634 0.06872644275426865 0.27191615104675293
0.2036341428756714 -0.1245107427239418 -0.07698432356119156
0.42093151807785034 0.18588142096996307 -0.17886199057102203
-0.5616737604141235 -0.04984796419739723 0.05699622258543968
-0.1520712673664093 0.17790234088897705 0.11435680836439133
0.19110742211341858 0.2405197024345398 0.05261904373764992
-0.20527032017707825 -0.3079991936683655 0.026750918477773666
0.1494486927986145 0.1534052938222885 0.3195830285549164
-0.025931019335985184 -0.30509519577026367 -0.04992700740695
-0.1366375833749771 0.10164628177881241 0.2570902109146118
0.07677356153726578 -0.30436691641807556 -0.008269038051366806
0.06886958330869675 0.20017580687999725 0.08796969056129456
-0.14607743918895721 0.307591050863266 0.04191207140684128
-0.2699631154537201 0.18201303482055664 -0.06775932759046555
0.42089131474494934 0.06032437086105347 -0.2469349205493927
0.4177032709121704 -0.0067979395389556885 -0.21028728783130646
0.35401296615600586 -0.26168420910835266 -0.3637298345565796
0.07159700989723206 -0.25805598497390747 -0.07471946626901627
-0.07559540867805481 -0.26745787262916565 -0.07131707668304443
-0.1867547184228897 0.16412468254566193 0.11985897272825241
-0.2774408757686615 -0.14211267232894897 0.06967542320489883
-0.06527775526046753 -0.0038916997145861387 0.36306074261665344
-0.2341376692056656 -0.020088007673621178 0.19263634085655212
-0.5287688970565796 0.20559608936309814 -0.06579659134149551
-0.08433053642511368 -0.08880611509084702 0.3129277527332306
-0.5193751454353333 0.22356703877449036 -0.06590195000171661
0.3013192117214203 -0.06726286560297012 -0.18227779865264893
-0.21538254618644714 0.0860293060541153 0.18904946744441986
0.2952563166618347 0.06014823913574219 -0.3703002333641052
-0.3558412194252014 -0.06392073631286621 0.06469699740409851
-0.06633235514163971 -0.09497824311256409 0.32824885845184326
-0.021748581901192665 -0.26628008484840393 0.05229731649160385
-0.37114277482032776 -0.03804851695895195 -0.0712650939822197
0.0016934999730437994 -0.23089170455932617 -0.07423847168684006
0.161764457821846 0.15747998654842377 0.31521686911582947
0.357616662979126 0.022519055753946304 0.10737691819667816
0.22470152378082275 -0.1934654861688614 0.20800074934959412
-0.4477054178714752 -0.007346201688051224 -0.06848111003637314
-0.5425994992256165 0.07982634007930756 0.053512271493673325
0.4170140326023102 -0.13318166136741638 -0.12855316698551178
0.19740381836891174 -0.1536274403333664 0.2734127342700958
0.3555036187171936 -0.05582268908619881 0.11092991381883621
0.2047264724969864 -0.3046456277370453 0.012602346949279308
-0.44201233983039856 0.07118796557188034 0.057116374373435974
0.10620478540658951 0.05116461217403412 -0.07254482060670853
-0.11120867729187012 -0.30700501799583435 -0.06695204228162766
-0.1930246353149414 0.30775970220565796 0.054612111300230026
0.4036162197589874 0.12936007976531982 -0.39478278160095215
-0.36490729451179504 -0.17318087816238403 -0.06843828409910202
-0.09223204851150513 0.13524329662322998 0.2664843797683716
0.42049410939216614 0.015360299497842789 -0.20956183969974518
0.24523906409740448 -0.03601789474487305 0.22476443648338318
-0.3430269658565521 -0.2744514048099518 0.05164004862308502
-0.11416816711425781 -0.18450406193733215 -0.07218697667121887
-0.5453979969024658 -0.23623152077198029 -0.03473547846078873
-2.669136483746115e-05 -0.026339445263147354 -0.07372839003801346
0.29684874415397644 -0.020578015595674515 -0.2721584439277649
0.27354535460472107 0.2110930234193802 0.05194492265582085
0.36165010929107666 0.1065564826130867 0.1080932468175888
-0.4289891719818115 -0.029017340391874313 0.05313544720411301
0.3203464150428772 0.3111155927181244 0.04298032820224762
-0.43141451478004456 -0.31097447872161865 -0.00021301893866620958
0.3651832938194275 -0.03086159937083721 0.09957784414291382
-0.20353715121746063 -0.28388723731040955 0.05207948759198189
-0.5550237894058228 0.22225798666477203 0.03605856001377106
-0.15943914651870728 -0.2468271255493164 0.05063638463616371
-0.08290579169988632 0.23096968233585358 0.053417954593896866
-0.011976980604231358 0.24677203595638275 0.049624957144260406
-0.4705182909965515 -0.3040531575679779 -0.025067409500479698
-0.35252177715301514 -0.16220791637897491 -0.0690324455499649
-0.22797605395317078 0.15796397626399994 -0.0664411410689354
0.28578075766563416 0.2980387508869171 0.05414128676056862
0.2320338636636734 -0.19444170594215393 0.21631355583667755
0.29820138216018677 -0.2924019396305084 -0.23359856009483337
0.4202502369880676 -0.14038026332855225 -0.1279963254928589
0.3018823564052582 0.09988678991794586 -0.39294710755348206
-0.25247302651405334 -0.24594438076019287 -0.07200979441404343
0.0004738575662486255 0.10677226632833481 0.38407444953918457
-0.1256180703639984 0.25341513752937317 -0.06532791256904602
-0.0780957043170929 -0.026845937594771385 0.343890905380249
-0.1102205291390419 0.1878453642129898 0.11790033429861069
-0.2824452221393585 -0.26540103554725647 -0.07006721198558807
-0.5506051182746887 -0.24295736849308014 -0.02371037006378174
-0.5435648560523987 -0.24887080490589142 -0.05612422898411751
0.28183624148368835 0.10509636998176575 0.18547110259532928
-0.1258644312620163 0.3060956597328186 0.02504037693142891
0.09743207693099976 0.2874757647514343 0.053960174322128296
0.4181932210922241 0.2219763994216919 -0.05872775614261627
-0.20356819033622742 -0.22582340240478516 0.05194371938705444
-0.009992110542953014 -0.03286940976977348 0.41297647356987
0.418376624584198 0.0019854765851050615 -0.3537021577358246
-0.5412745475769043 -0.04201012849807739 0.059905629605054855
-0.37560972571372986 -0.1268613189458847 0.049468737095594406
-0.36654311418533325 -0.2739345133304596 -0.06739934533834457
-0.2810715138912201 0.06331680715084076 0.13460107147693634
0.377711683511734 0.23174305260181427 -0.38529232144355774
0.37011054158210754 0.011408391408622265 -0.39528894424438477
-0.4290423095226288 -0.298369437456131 -0.07035244256258011
-0.2715495228767395 -0.2055061310529709 -0.06859122216701508
-0.10933446139097214 -0.18934130668640137 0.12070754170417786
0.3871038556098938 -0.3007495105266571 0.0008461225079372525
0.3193933069705963 -0.18984077870845795 -0.2153593897819519
-0.20470164716243744 -0.09350273758172989 -0.07067304849624634
-0.33209845423698425 -0.09850157797336578 0.06533025950193405
0.14291802048683167 0.04983246698975563 0.17955918610095978
0.35902777314186096 -0.02315511554479599 0.10948041081428528
-0.46497559547424316 0.28281956911087036 0.05516526848077774
-0.4101867973804474 0.03806805610656738 -0.06995484977960587
-0.5364665985107422 0.12169419229030609 -0.06417675316333771
-0.5646477937698364 -0.14181342720985413 0.025225549936294556
-0.008547080680727959 0.2640904188156128 -0.07038561999797821
0.37804970145225525 -0.3024160861968994 -0.08469118177890778
-0.3891391456127167 0.15847326815128326 0.05083390325307846
0.30116358399391174 -0.04301184043288231 -0.08178968727588654
-0.20235775411128998 0.2381599247455597 -0.0688718780875206
0.30260738730430603 0.09022205322980881 0.10782968997955322
0.1345807909965515 -0.30160146951675415 -0.022421011701226234
-0.08077482134103775 0.09885364770889282 0.31092730164527893
-0.44472891092300415 0.24149666726589203 0.0013083857484161854
0.295165091753006 -0.024078764021396637 -0.3184832036495209
-0.16432598233222961 -0.2527328431606293 -0.07421248406171799
0.42292946577072144 0.12285256385803223 0.04406089335680008
0.32189685106277466 0.31049180030822754 -0.019270718097686768
0.0626806989312172 0.08711180835962296 0.409861296415329
0.29959407448768616 0.023074308410286903 -0.3950261175632477
-0.5618345737457275 -0.12698671221733093 -0.041697803884744644
0.2963821291923523 -0.2128036618232727 -0.12981072068214417
-0.5045009255409241 -0.2940828502178192 -0.029651418328285217
-0.11977743357419968 0.15279486775398254 0.19663695991039276
0.3315906822681427 0.08339706808328629 -0.39009949564933777
-0.25436389446258545 -0.3103935718536377 -0.04779357835650444
0.3209221661090851 -0.17654916644096375 -0.3943641185760498
0.2959192991256714 -0.28986218571662903 -0.13522130250930786
-0.15990711748600006 -0.11443908512592316 0.21711868047714233
0.30152302980422974 -0.09044338762760162 -0.08612991869449615
-0.48445120453834534 0.1253335028886795 0.05463286489248276
0.1929865926504135 0.20224066078662872 0.15254303812980652
0.3100389540195465 0.21878677606582642 0.050267793238162994
-0.39859965443611145 0.301372230052948 0.020124493166804314
0.30038759112358093 0.00794853363186121 -0.3544952869415283
-0.29100361466407776 -0.0801771804690361 0.11943601071834564
-0.33081239461898804 0.10382910072803497 0.051762327551841736
-0.4968358874320984 0.16181215643882751 0.04978903383016586
-0.34094780683517456 0.25915929675102234 -0.0676959902048111
-0.08375047147274017 -0.10517305135726929 -0.07037121057510376
0.30227532982826233 -0.12960708141326904 -0.25551319122314453
-0.08470095694065094 0.28192177414894104 -0.0699300542473793
-0.4359513223171234 0.241708904504776 0.04822457954287529
-0.5193633437156677 0.27377012372016907 -0.029719548299908638
0.2580591142177582 -0.17147988080978394 -0.07940326631069183
-0.44143757224082947 0.30565357208251953 -0.057056497782468796
0.01696009933948517 -0.05415526032447815 0.43372929096221924
-0.2833155691623688 -0.31212329864501953 -0.03241891786456108
0.026215795427560806 0.2390638142824173 -0.07307010143995285
0.4195542335510254 0.10440317541360855 -0.19447016716003418
0.41928979754447937 0.1029902845621109 -0.08977136760950089
-0.5667598247528076 0.11967901885509491 0.025368690490722656
0.2971201241016388 0.2109372466802597 0.04701851308345795
0.4208036959171295 0.12647370994091034 -0.1866067498922348
-0.23979516327381134 -0.23337768018245697 -0.07065486907958984
-0.17917181551456451 -0.21497048437595367 0.04991545528173447
0.01412791758775711 -0.1958693563938141 0.09993162006139755
-0.1756756603717804 -0.3084392547607422 -0.05858619138598442
0.231943279504776 -0.19327828288078308 0.0971776694059372
0.036069661378860474 -0.19320833683013916 0.09914086014032364
0.3244304358959198 -0.3026691675186157 -0.05424530804157257
-0.018933475017547607 0.2868543863296509 -0.06808008998632431
-0.0578441396355629 -0.15671667456626892 0.25581854581832886
-0.05069481208920479 0.3097902834415436 -0.054014407098293304
-0.15867048501968384 0.3081066608428955 -0.017281828448176384
-0.31159645318984985 0.007774858735501766 -0.07010781764984131
-0.5049155354499817 -0.2641991376876831 0.05267081782221794
0.1489911526441574 0.31083521246910095 -0.05947282910346985
0.2827870547771454 -0.17823831737041473 0.08520418405532837
-0.023085782304406166 -0.30360227823257446 -0.015909617766737938
0.14630407094955444 0.1952321082353592 0.3184809684753418
-0.3335431218147278 0.24509106576442719 0.050625622272491455
0.42009827494621277 -0.03431824967265129 -0.2779514193534851
-0.538603663444519 0.2520936131477356 0.006097141187638044
-0.5654736161231995 0.002389301313087344 0.04383936896920204
0.0343175083398819 0.1665930449962616 0.3379717767238617
0.2933181822299957 0.22592435777187347 -0.3941243886947632
0.11358833312988281 -0.3029576539993286 0.005127784330397844
-0.4691952168941498 -0.23622652888298035 -0.06715328991413116
0.3851444721221924 0.3101431727409363 -0.3036426901817322
0.4197080433368683 -0.03669892996549606 -0.18741685152053833
0.12700282037258148 -0.03568345308303833 0.15714406967163086
-0.07102808356285095 0.30895504355430603 -0.008909989148378372
-0.10699053853750229 -0.30676671862602234 -0.021180275827646255
-0.22063608467578888 -0.23945629596710205 0.04915350303053856
0.37124618887901306 0.3134210407733917 -0.033890869468450546
-0.2325623631477356 0.031310755759477615 -0.07098177075386047
0.4199121594429016 0.16356736421585083 -0.17165498435497284
0.359944611787796 0.30518338084220886 -0.31214994192123413
-0.5660479068756104 0.15098130702972412 0.026042286306619644
0.41884398460388184 -0.09597623348236084 -0.1728474646806717
-0.25173860788345337 0.3000766634941101 0.05418795347213745
-0.2188917100429535 -0.04469124600291252 0.20348124206066132
-0.0723080113530159 -0.18850857019424438 -0.0718419998884201
-0.42541491985321045 -0.12678392231464386 -0.05828646197915077
-0.5689882636070251 0.06009173393249512 -0.05247173830866814
0.4220675230026245 0.1971862018108368 0.015015344135463238
0.2911307215690613 -0.12247395515441895 -0.25525450706481934
0.3136458396911621 -0.16265493631362915 -0.3955284655094147
-0.10023853182792664 0.1975315362215042 0.10010137408971786
0.1447514146566391 -0.29141759872436523 -0.07418104261159897
0.3134688436985016 0.28418540954589844 -0.34914126992225647
0.3177525997161865 0.31403279304504395 -0.06022472307085991
-0.4793381094932556 0.14218464493751526 -0.023151449859142303
0.15286943316459656 0.056946784257888794 -0.07397561520338058
0.28139567375183105 0.1650107502937317 0.09187237918376923
0.07950054109096527 -0.12153410911560059 -0.07291572540998459
0.0832395926117897 -0.0774100199341774 0.16451793909072876
-0.47018805146217346 -0.07686883211135864 0.056245990097522736
-0.17295049130916595 0.19251683354377747 -0.06905372440814972
-0.2775905728340149 -0.30500006675720215 0.044735219329595566
-0.09608837217092514 -0.04628248140215874 -0.06749887019395828
-0.1187899187207222 0.11599989980459213 -0.07490603625774384
-0.5364413857460022 0.24356043338775635 -0.06637308746576309
0.1142805740237236 0.09330932050943375 0.245724156498909
0.32594239711761475 0.096896231174469 0.1338057816028595
0.33268675208091736 0.07283493876457214 0.13451769948005676
0.2511845827102661 -0.1885005384683609 0.19498416781425476
0.2945915162563324 0.008326669223606586 -0.1470901072025299
0.13451041281223297 0.14646872878074646 -0.07320830225944519
-0.4516122341156006 0.2618491053581238 0.05401485040783882
-0.4430854916572571 0.2635633945465088 -0.0645056664943695
0.09984218329191208 0.31075483560562134 0.04572885483503342
-0.11477596312761307 -0.14929983019828796 0.2163359671831131
0.17637859284877777 -0.1152491644024849 0.2924351096153259
0.1879243701696396 0.09101732075214386 0.2841675579547882
-0.31678536534309387 -0.11025863885879517 -0.06916385143995285
-0.373941570520401 -0.1583811640739441 0.05224330350756645
0.24051780998706818 0.013508552685379982 0.23034873604774475
0.29510021209716797 -0.2597854733467102 -0.36315637826919556
0.40983882546424866 0.1633264571428299 -0.3941527307033539
-0.21573936939239502 0.2882063090801239 0.055824510753154755
0.3927024006843567 -0.13526377081871033 0.06987610459327698
0.34691759943962097 -0.2026890367269516 -0.3930862545967102
0.4224091172218323 0.050338972359895706 -0.03763744980096817
0.06069820374250412 -0.19022047519683838 0.26955509185791016
0.32420966029167175 0.3149747848510742 -0.13104552030563354
-0.004090934060513973 -0.3064016103744507 -0.06483536958694458
-0.5620155334472656 -0.04929414764046669 -0.04012390598654747
-0.09932886809110641 0.2265411615371704 -0.07236224412918091
-0.5402796268463135 -0.049818359315395355 -0.06834902614355087
-0.11567052453756332 0.09851330518722534 -0.07028509676456451
0.3088701367378235 -0.23875321447849274 -0.25894197821617126
-0.37506070733070374 -0.20408879220485687 0.05069712921977043
0.31975802779197693 0.3110557198524475 -0.04772999510169029
0.27931174635887146 0.08946307748556137 0.17741768062114716
0.16107486188411713 0.011468349024653435 -0.07194166630506516
0.34934645891189575 -0.3043920695781708 -0.2243557870388031
-0.21949434280395508 0.048917826265096664 0.20217761397361755
-0.409088134765625 0.10933560878038406 0.05395672842860222
-0.5651071667671204 0.09556053578853607 -0.006471575703471899
-0.16959649324417114 -0.11688839644193649 0.20610648393630981
0.3825608789920807 -0.30377107858657837 0.01034296490252018
0.4114709496498108 0.21391287446022034 -0.39121878147125244
0.2993893623352051 -0.017911914736032486 -0.11749723553657532
-0.14832107722759247 0.019592847675085068 0.28034508228302
0.2990392744541168 0.054089855402708054 -0.19282864034175873
0.14950628578662872 -0.10153567790985107 0.3207729160785675
-0.3971218764781952 -0.04579131677746773 -0.06720432639122009
-0.4690028131008148 -0.3111208379268646 0.008993547409772873
0.22522489726543427 -0.30369845032691956 -0.0463961698114872
0.34203827381134033 -0.1931009739637375 0.1192503497004509
-0.20337483286857605 -0.1275634616613388 0.16166499257087708
0.05024522915482521 0.19812078773975372 0.1552671492099762
0.3991624414920807 -0.2950945794582367 -0.30576059222221375
-0.3985726833343506 0.06223517283797264 -0.07118932157754898
0.08660706877708435 0.12848126888275146 -0.07042189687490463
-0.04217592999339104 -0.04700687900185585 -0.07064429670572281
0.26135730743408203 0.1999991089105606 0.0947774201631546
0.2908453047275543 0.26696810126304626 -0.24523688852787018
0.05637810006737709 -0.04196152091026306 0.4187031090259552
0.4193921685218811 -0.0667676329612732 -0.12037364393472672
-0.4631677269935608 0.13162152469158173 -0.06997580826282501
0.0690455436706543 -0.30642324686050415 0.01734081096947193
0.18831510841846466 -0.1930806040763855 0.10744960606098175
0.19675175845623016 -0.10789474844932556 -0.08022882044315338
-0.18556633591651917 0.10543468594551086 0.2074519842863083
-0.27629268169403076 -0.14630284905433655 -0.07072153687477112
-0.11215639114379883 -0.30554744601249695 0.03692905604839325
0.4246823191642761 0.24858082830905914 0.008214862085878849
0.2940131425857544 -0.0794905573129654 -0.09271365404129028
-0.33905795216560364 0.18093399703502655 0.052231114357709885
0.06607356667518616 0.27811890840530396 -0.07172641158103943
-0.5643724799156189 0.07690832018852234 -0.006744698621332645
-0.11015892773866653 0.2557139992713928 -0.06726383417844772
0.015527905896306038 0.08211386203765869 0.41790875792503357
0.4224892854690552 0.29617124795913696 -0.11816437542438507
-0.15713557600975037 -0.3053920269012451 -0.04043693467974663
-0.2760764956474304 0.2927355468273163 0.055354855954647064
0.39042580127716064 0.31274113059043884 -0.007478383369743824
0.04799982160329819 -0.19496957957744598 0.17894859611988068
-0.24881112575531006 -0.18411429226398468 -0.06831380724906921
-0.029190685600042343 0.19321805238723755 0.15545544028282166
0.39299577474594116 -0.0683932676911354 0.07883727550506592
0.3406985402107239 0.009898392483592033 -0.39440372586250305
0.15703897178173065 0.2008412480354309 0.14751102030277252
-0.15544965863227844 0.042692892253398895 -0.07132678478956223
-0.17930196225643158 0.3048750162124634 -0.044865984469652176
0.3591862916946411 -0.30172380805015564 0.013063469901680946
-0.0025889186654239893 -0.19510957598686218 0.06469079852104187
0.2948765456676483 -0.12822425365447998 -0.1287989765405655
-0.47272777557373047 -0.2429448664188385 -0.004021064843982458
0.29670044779777527 0.03517785668373108 -0.39449360966682434
-0.49515366554260254 -0.2954053580760956 0.05356002226471901
-0.2563353478908539 0.02613145485520363 0.17654891312122345
-0.06762181967496872 -0.16139841079711914 -0.07378976792097092
-0.02860591933131218 -0.14852134883403778 0.29538866877555847
0.3798657953739166 0.25728076696395874 -0.3754202425479889
-0.02679135836660862 -0.19404490292072296 0.08562483638525009
0.1603296995162964 0.19974234700202942 0.18266546726226807
0.19285550713539124 0.12849321961402893 0.2802712321281433
0.19376806914806366 0.21283620595932007 0.05370587855577469
-0.07883524149656296 -0.22807762026786804 -0.0724421963095665
-0.27920717000961304 -0.25243109464645386 0.049022067338228226
0.1944797933101654 -0.26710429787635803 0.051298703998327255
-0.1755637526512146 0.05617739260196686 -0.0695715919137001
0.4198293685913086 0.2489723116159439 -0.34540924429893494
0.11149170994758606 -0.1942215859889984 0.1398782581090927
-0.5224699974060059 0.010189113207161427 -0.06809372454881668
-0.4946349561214447 0.2851582467556 0.05657409131526947
0.3733741044998169 -0.030928639695048332 0.09231226146221161
0.4220220148563385 0.07928667217493057 0.0068391659297049046
-0.061224110424518585 -0.03891834616661072 0.3624224364757538
0.10117974877357483 0.19827979803085327 0.0849464163184166
0.16200301051139832 -0.0846283808350563 0.26296374201774597
0.42304399609565735 0.17451097071170807 0.03707593306899071
-0.08172430098056793 -0.06017577275633812 0.3361380398273468
0.12113358825445175 -0.30255958437919617 -0.012437907047569752
-0.09179842472076416 -0.30487897992134094 0.045186590403318405
-0.20327909290790558 -0.046045877039432526 0.21866309642791748
0.15816205739974976 -0.19544123113155365 0.2513260543346405
-0.5533420443534851 0.11491300165653229 0.05460591986775398
-0.2069578915834427 -0.2134529948234558 0.050927892327308655
0.3923107087612152 0.3167070150375366 -0.11467370390892029
0.36574485898017883 0.303945928812027 0.05051541328430176
-0.13928498327732086 0.3053463399410248 0.009790918789803982
-0.3399478495121002 -0.1373310685157776 -0.0696033388376236
-0.3981071412563324 0.2900240123271942 -0.06852586567401886
0.047029491513967514 0.16366656124591827 -0.07068599760532379
0.2200043946504593 -0.19047169387340546 0.11953657120466232
0.3790260851383209 -0.30389726161956787 -0.18710926175117493
0.14651237428188324 0.1974603682756424 0.2712138593196869
-0.09618355333805084 0.3077395260334015 0.005719792563468218
0.298489511013031 -0.23348289728164673 -0.2879810929298401
-0.10485532879829407 -0.02796809934079647 0.3221909999847412
0.32200750708580017 -0.3023985028266907 -0.2462780922651291
-0.40365147590637207 0.30188754200935364 0.004402768798172474
-0.3008478283882141 0.057634271681308746 0.12445533275604248
0.21619069576263428 -0.10344641655683517 0.2534984350204468
0.41495388746261597 -0.13230739533901215 -0.3549303412437439
0.06472739577293396 0.23210950195789337 0.05095953866839409
0.29950037598609924 -0.030101781710982323 -0.24915911257266998
-0.5609747171401978 0.15767167508602142 0.025962989777326584
0.09361036121845245 -0.1200992688536644 0.3806818127632141
-0.34644001722335815 -0.25699612498283386 -0.07442827522754669
-0.565142035484314 0.1350584775209427 0.008664161898195744
0.3456537127494812 0.161414235830307 0.12355101108551025
-0.1446884423494339 -0.3096010684967041 -0.026951182633638382
-0.08244892209768295 -0.21751604974269867 -0.07243523001670837
-0.48646748065948486 0.061798613518476486 -0.06500010937452316
0.02204427681863308 0.213299959897995 -0.07182644307613373
0.4203249514102936 0.14165808260440826 0.016154540702700615
0.2931061089038849 0.2008255124092102 -0.20082387328147888
-0.10078468173742294 0.30709585547447205 -0.047951411455869675
0.35603752732276917 0.13727474212646484 0.10828270018100739
-0.026097623631358147 0.025979528203606606 -0.07286887615919113
0.10557238012552261 0.18917487561702728 0.3323146402835846
0.27868208289146423 -0.18870244920253754 0.09120698273181915
-0.20352445542812347 0.30368930101394653 -0.06661286950111389
-0.03461534157395363 0.28948327898979187 0.05372113361954689
0.18318605422973633 -0.21005937457084656 0.04681092128157616
-0.23464517295360565 -0.3145664930343628 0.021384965628385544
-0.013786174356937408 0.19509445130825043 0.14281722903251648
-0.5658397078514099 -0.012440645135939121 0.05419604480266571
-0.4974093437194824 0.042962413281202316 -0.06534919887781143
0.2349427491426468 -0.22475463151931763 0.04858006164431572
0.26804202795028687 0.11043676733970642 0.17238232493400574
-0.10177755355834961 0.16122591495513916 0.21442657709121704
-0.07256581634283066 0.1894727647304535 0.13357554376125336
-0.22365443408489227 0.011504421010613441 0.20610174536705017
0.03446192294359207 -0.29900771379470825 -0.07149243354797363
-0.2866082787513733 -0.10702795535326004 0.09742304682731628
0.2659509479999542 0.31164830923080444 -0.05338960886001587
0.2536795139312744 -0.17218263447284698 0.22026440501213074
0.41890454292297363 0.12098530679941177 -0.30783945322036743
0.04945501685142517 -0.18407976627349854 0.2757437229156494
-0.08293940126895905 0.07293027639389038 0.32678088545799255
0.28728917241096497 -0.3008543848991394 0.01055898703634739
0.15091431140899658 0.28464260697364807 -0.0713433250784874
-0.32379937171936035 -0.08441262692213058 0.08247051388025284
-0.20216864347457886 -0.1318579912185669 -0.07092738151550293
-0.4784785807132721 0.2973729074001312 -0.06301213800907135
-0.41655346751213074 0.247147798538208 0.060456134378910065
0.17807936668395996 0.19880419969558716 0.22046075761318207
-0.19198913872241974 0.13487975299358368 -0.06837119162082672
-0.17552058398723602 0.30219003558158875 0.05529133230447769
-0.22665926814079285 0.2117263227701187 0.05425267294049263
0.4189939498901367 -0.24337556958198547 -0.14355985820293427
-0.5666842460632324 -0.03691495209932327 -0.020362988114356995
-0.012621232308447361 0.08944248408079147 -0.07177435606718063
-0.2833395302295685 -0.1377977728843689 -0.06750492751598358
0.29712656140327454 0.14084413647651672 -0.3567819893360138
0.1604369729757309 0.16395041346549988 -0.06845790147781372
-0.04970582574605942 0.30805039405822754 -0.03734945133328438
0.23867279291152954 -0.30445384979248047 -0.03523264825344086
-0.22551335394382477 0.3109281659126282 -0.05281906947493553
0.29816514253616333 0.03176797926425934 -0.0887644812464714
-0.4237232208251953 -0.0765756219625473 -0.06899619847536087
0.34813472628593445 0.31594547629356384 -0.27324408292770386
-0.5593017339706421 -0.19868311285972595 -0.013007029891014099
-0.49633821845054626 -0.17891250550746918 -0.022741995751857758
0.3660057485103607 -0.3059360682964325 -0.06838396191596985
0.21712861955165863 0.20199806988239288 -0.07419800758361816
0.29425811767578125 0.22248435020446777 -0.3339093029499054
-0.21973447501659393 -0.3095376193523407 0.05019589886069298
-0.04497244581580162 0.1258232444524765 0.3242585062980652
0.06213560327887535 -0.1831735521554947 0.310565322637558
0.4207918643951416 -0.19920183718204498 -0.0910630077123642
0.003551793284714222 -0.1687428206205368 0.29590094089508057
0.2839048206806183 -0.04243357852101326 -0.07898418605327606
-0.2222326099872589 -0.28208163380622864 0.05082763358950615
-0.4400528073310852 0.2531944513320923 0.0559159480035305
0.20224787294864655 -0.14289885759353638 -0.07522078603506088
0.08175864815711975 0.053986821323633194 -0.07260402292013168
-0.38469061255455017 2.0534351278911345e-05 0.049063846468925476
0.03656402975320816 0.31030911207199097 -0.010676627047359943
-0.003062507836148143 0.1983090192079544 0.14075157046318054
0.12442099303007126 0.08697094023227692 0.3402259051799774
0.017484279349446297 0.2915036082267761 -0.06850681453943253
0.18128113448619843 -0.19309164583683014 0.16284488141536713
0.4231891930103302 0.21325552463531494 -0.06627760827541351
0.3621474504470825 -0.30252692103385925 0.01992419920861721
-0.2917136549949646 0.2757790684700012 0.0552581287920475
-0.2637512981891632 0.2901483178138733 -0.06490462273359299
-0.24848969280719757 0.20515607297420502 0.053472600877285004
0.12848860025405884 -0.1841120570898056 0.3399425148963928
0.3788919448852539 0.3169950842857361 -0.1466958224773407
-0.29556208848953247 -0.2656872570514679 0.0504222996532917
0.2784828245639801 0.12505212426185608 -0.07334867119789124
0.31524989008903503 0.15591098368167877 -0.39390286803245544
0.1904524266719818 0.18511240184307098 0.28269654512405396
0.29208868741989136 0.08274795860052109 0.09963288903236389
-0.07760672271251678 0.18875524401664734 0.14605674147605896
-0.39707228541374207 0.24096602201461792 -0.06771998107433319
-0.49456706643104553 0.2952740788459778 -0.04814973846077919
0.41831478476524353 -0.16996224224567413 -0.12103666365146637
-0.5377213358879089 -0.04230634495615959 -0.06629618257284164
-0.2359873503446579 0.010378475300967693 -0.06945715099573135
-0.5476598143577576 0.1360398381948471 0.054478712379932404
-0.05094684287905693 -0.018797026947140694 0.3751744031906128
0.0962182879447937 -0.055103328078985214 0.35343655943870544
-0.12533454596996307 0.3086136281490326 0.048984747380018234
-0.2182772010564804 0.0013043649960309267 0.2131548523902893
0.26018157601356506 0.0584382563829422 0.20950262248516083
-0.009699317626655102 -0.27617618441581726 -0.07218988239765167
-0.29369980096817017 -0.007212999276816845 -0.07009285688400269
0.3009369671344757 -0.046343088150024414 -0.3624557852745056
0.29145118594169617 0.09974831342697144 -0.3167591691017151
-0.240001380443573 -0.1529475450515747 0.08306290209293365
-0.11395169794559479 -0.03637079894542694 0.30943650007247925
-0.2047252058982849 -0.21670715510845184 0.05226832628250122
0.30038216710090637 0.09239500761032104 -0.27710264921188354
-0.3981662094593048 0.21991635859012604 0.03325484320521355
-0.40775784850120544 0.018446553498506546 0.053462423384189606
0.2892284393310547 0.15834181010723114 -0.2169625461101532
0.24808216094970703 0.22768335044384003 -0.07208110392093658
0.3522526025772095 0.31517139077186584 -0.14414674043655396
0.256020724773407 -0.30301815271377563 -0.03402503579854965
-0.4875239431858063 -0.10250116139650345 -0.06903960555791855
-0.37387093901634216 0.23293550312519073 0.055756520479917526
-0.5545101165771484 0.22618168592453003 0.024817101657390594
0.29802224040031433 -0.3008773624897003 -0.07088509947061539
0.1685418039560318 0.13982470333576202 0.3060160279273987
-0.15009935200214386 0.15350386500358582 -0.06997893005609512
-0.16279572248458862 -0.0944778248667717 0.23336374759674072
-0.22282356023788452 0.12065081298351288 0.1491307020187378
0.1324157416820526 0.19803684949874878 0.2663417458534241
0.25029295682907104 0.20082047581672668 0.07844974100589752
-0.5634943842887878 -0.10160107910633087 -0.02060825005173683
-0.0906912162899971 -0.30370163917541504 -0.060799505561590195
-0.33428773283958435 0.0986996591091156 -0.06918251514434814
0.41995957493782043 0.061496615409851074 -0.0774073675274849
0.4239196181297302 0.1674964874982834 0.007604875601828098
0.13184422254562378 0.16929876804351807 0.34369713068008423
0.05190441384911537 -0.22329995036125183 -0.07541095465421677
0.07367176562547684 0.11330194026231766 0.4018564224243164
0.2886456251144409 0.2687258720397949 -0.3500646948814392
0.19254951179027557 0.13826774060726166 0.28097617626190186
-0.5629462599754333 -0.1235852763056755 0.0316486693918705
0.26738882064819336 -0.05396062508225441 0.1682395040988922
-0.5577825307846069 0.23133936524391174 -0.02668684720993042
0.19173894822597504 0.2308931052684784 0.05211959406733513
-0.10976345837116241 0.3069270849227905 -0.01248389482498169
0.33787158131599426 0.20845673978328705 -0.3873731791973114
0.06966530531644821 -0.19657084345817566 0.07214713841676712
0.41893795132637024 -0.3017406463623047 -0.0033298335038125515
0.3041456341743469 0.2331748604774475 -0.38347163796424866
-0.25961512327194214 -0.03957030177116394 -0.07090702652931213
0.2775566577911377 -0.2882643938064575 -0.07569704949855804
-0.4474330246448517 -0.30950257182121277 0.0005209779483266175
-0.03934796154499054 0.013720358721911907 0.3866386115550995
0.16535469889640808 -0.060733307152986526 -0.07273425906896591
0.20354141294956207 0.07388763874769211 -0.07302050292491913
-0.031070871278643608 -0.30422985553741455 -0.05106271430850029
0.11211634427309036 -0.3042231798171997 -0.013739964924752712
-0.3752097487449646 0.12081220000982285 0.05540570989251137
0.35952046513557434 0.19751134514808655 -0.39370909333229065
0.29261669516563416 0.1262001246213913 -0.37162697315216064
0.22897857427597046 -0.19569987058639526 0.06997775286436081
0.11600200831890106 0.2000715583562851 0.10952263325452805
0.34124520421028137 -0.19153501093387604 0.10085363686084747
-0.11645103245973587 0.14898155629634857 0.21934349834918976
0.09025801718235016 -0.08717845380306244 0.18039925396442413
0.1267603486776352 0.1971634179353714 0.3288094699382782
-0.49711212515830994 0.202827587723732 -0.0484197624027729
-0.5199722051620483 0.03957021236419678 0.056013718247413635
0.10846034437417984 -0.013229701668024063 -0.07165812700986862
0.35124897956848145 -0.30227795243263245 -0.049144987016916275
0.06125390902161598 0.2706308960914612 -0.07409694045782089
-0.20995593070983887 0.3025883138179779 0.04186180606484413
-0.015992067754268646 0.12259799987077713 0.3520995080471039
-0.191318079829216 0.05941270664334297 -0.06980852782726288
-0.14866618812084198 0.12592817842960358 -0.06840811669826508
0.06766122579574585 0.1200469434261322 0.40642550587654114
0.2236167937517166 -0.19481873512268066 0.14641045033931732
0.4191116988658905 0.06634148210287094 -0.11981429904699326
-0.1143815666437149 -0.21088990569114685 -0.07229585945606232
0.3532780706882477 -0.21402935683727264 0.04749862104654312
0.26891738176345825 0.0525335818529129 0.2024836391210556
0.04351097717881203 -0.028782425448298454 0.42903202772140503
0.03357410803437233 0.2592175304889679 -0.07208822667598724
-0.3054385781288147 0.16227325797080994 0.05593506619334221
-0.5584930181503296 -0.085041843354702 -0.03806248679757118
-0.47213560342788696 0.2878752052783966 0.057123180478811264
0.400803804397583 0.05061144009232521 0.06429535895586014
-0.08728889375925064 -0.09772204607725143 0.30564841628074646
-0.14565305411815643 0.00019603011605795473 -0.06982720643281937
-0.008486954495310783 -0.1334088295698166 -0.07135564088821411
-0.43584543466567993 -0.08238492161035538 -0.06628220528364182
0.3564997613430023 0.1427731215953827 -0.2948753833770752
0.20769210159778595 0.08570771664381027 -0.07330901175737381
0.08017658442258835 0.309189110994339 -0.07117254287004471
-0.15142148733139038 -0.16703850030899048 0.14758773148059845
-0.01834043301641941 0.09229166805744171 0.37656956911087036
0.29314836859703064 -0.2251698076725006 -0.15880855917930603
0.12386494129896164 0.09785523265600204 0.34922999143600464
-0.34953469038009644 0.3063798248767853 -0.012468154542148113
0.06662154942750931 0.1987844705581665 0.16719293594360352
0.07312040030956268 0.13439586758613586 -0.07215668261051178
-0.42829155921936035 -0.3076767325401306 -9.213671728502959e-05
0.29931560158729553 -0.17145521938800812 -0.13346025347709656
-0.12986458837985992 -0.08403761684894562 -0.07121002674102783
-0.1307826191186905 0.1995297372341156 0.05157625302672386
-0.2873639762401581 0.2098436802625656 0.05670607089996338
-0.3426448702812195 0.30618494749069214 0.03858242183923721
0.347369521856308 -0.30552950501441956 0.03999411314725876
-0.12230353057384491 0.2770245373249054 -0.06726248562335968
-0.06307803094387054 -0.2492385357618332 -0.0744730532169342
0.018166517838835716 0.05576229467988014 -0.07081305980682373
0.4212089776992798 0.08107652515172958 -0.1268354058265686
-0.3747647702693939 -0.23778609931468964 -0.07372014969587326
-0.34026744961738586 -0.19379884004592896 0.05157537758350372
-0.5065441131591797 0.2567290663719177 -0.06805545091629028
0.3387133777141571 0.31230926513671875 -0.02366788312792778
-0.07626965641975403 -0.19503746926784515 0.1139175295829773
-0.2449883669614792 0.14265170693397522 0.10071055591106415
0.14171722531318665 0.15672355890274048 0.3301641047000885
0.37560155987739563 0.10839387774467468 -0.3947688043117523
-0.1600746065378189 -0.30727964639663696 0.03656782954931259
-0.1906612366437912 0.10667307674884796 -0.07072886824607849
0.29879966378211975 0.05117269232869148 -0.34873950481414795
0.3364006280899048 0.2001725137233734 0.09577984362840652
-0.09530048072338104 0.10561146587133408 0.2912488877773285
-0.04033041372895241 -0.10049447417259216 -0.07467306405305862
0.37442466616630554 0.31397631764411926 -0.041872184723615646
-0.3885714113712311 -0.21905602514743805 0.05011000111699104
0.33755940198898315 0.31327497959136963 -0.012770438566803932
-0.5686440467834473 0.13043470680713654 0.046332936733961105
0.29774144291877747 -0.10110430419445038 -0.24767133593559265
-0.13891763985157013 0.2650231719017029 -0.06664934009313583
-0.4857344925403595 -0.21991975605487823 0.031533144414424896
-0.13304661214351654 -0.10466689616441727 0.25102823972702026
0.4070824086666107 0.1170477569103241 0.05773819983005524
0.10408923774957657 0.19761650264263153 0.26704320311546326
0.22145865857601166 0.21017467975616455 0.055153198540210724
-0.17213691771030426 -0.023731451481580734 0.25661471486091614
0.14973671734333038 -0.1943448930978775 0.31558898091316223
-0.22468341886997223 -0.0038828349206596613 0.20815204083919525
-0.15923433005809784 -0.004408470820635557 -0.06911275535821915
-0.5625191330909729 0.0307987779378891 0.056580573320388794
0.060223743319511414 -0.09013400971889496 0.22412611544132233
0.30252760648727417 0.30501648783683777 -0.3151169419288635
-0.2177315354347229 -0.3036934435367584 -0.04082498699426651
0.3037339448928833 -0.3014478385448456 -0.27135664224624634
0.12058642506599426 -0.30670395493507385 0.00486797746270895
-0.033779293298721313 0.19967639446258545 -0.06883130222558975
0.33497220277786255 -0.23525995016098022 -0.2681020200252533
-0.26189807057380676 -0.26826000213623047 -0.07381456345319748
-0.22602052986621857 -0.12060247361660004 0.14901302754878998
-0.216129869222641 0.3058391511440277 -0.04983672872185707
-0.13924957811832428 0.13734593987464905 0.21494776010513306
-0.21398694813251495 -0.027704913169145584 -0.0702730268239975
-0.35904157161712646 0.3069953918457031 -0.03309199959039688
-0.20835797488689423 -0.07700829207897186 0.20090381801128387
-0.12775936722755432 0.23714733123779297 -0.06764347106218338
0.38486504554748535 0.28931429982185364 -0.342207133769989
0.2823769450187683 0.17703531682491302 0.17819656431674957
0.3582700788974762 0.29844048619270325 -0.32778435945510864
0.3597937822341919 0.3149116635322571 0.010847127065062523
-0.5636488199234009 0.042855530977249146 -0.0672084167599678
0.4124648869037628 -0.13893522322177887 -0.22827523946762085
-0.014845088124275208 0.14402325451374054 0.32916179299354553
-0.11298630386590958 0.2935616672039032 0.05385935306549072
-0.23731878399848938 -0.13667674362659454 0.10938388109207153
-0.28653278946876526 -0.3100966811180115 0.02173727937042713
0.08147288113832474 -0.19409377872943878 0.2176111787557602
-0.06183711066842079 0.13954831659793854 0.2875191867351532
-0.5614745616912842 -0.02496357448399067 0.017976408824324608
0.03800933435559273 0.11011258512735367 -0.07162212580442429
0.10119403153657913 -0.1915062516927719 0.3029848635196686
0.10392723977565765 -0.19278214871883392 0.2967900037765503
-0.10505382716655731 0.14487527310848236 -0.0704975426197052
0.35782837867736816 0.21821226179599762 -0.38959214091300964
0.017297683283686638 -0.15642520785331726 0.3350111246109009
-0.5621296167373657 -0.10613024979829788 0.02388155274093151
0.22467383742332458 -0.2633635997772217 -0.07975871860980988
-0.4437010586261749 -0.30711740255355835 -0.05300019681453705
0.12030966579914093 -0.26208847761154175 -0.07484360784292221
0.29010170698165894 0.14004603028297424 -0.22783012688159943
-0.06532328575849533 -0.11460856348276138 0.30786171555519104
0.37405315041542053 -0.30356091260910034 0.011121860705316067
0.42350003123283386 0.11617119610309601 -0.007537107449024916
-0.5641452670097351 -0.03970566391944885 0.03673020377755165
-0.476248562335968 0.011625787243247032 0.056016914546489716
0.2577759325504303 0.19442136585712433 0.21543578803539276
0.4009747803211212 -0.16438131034374237 0.06267565488815308
-0.4371306896209717 -0.1293059140443802 0.045368753373622894
0.4228624403476715 0.27099642157554626 0.015585276298224926
0.2937109172344208 0.271150141954422 -0.30774152278900146
0.4171477258205414 -0.057698946446180344 -0.3541521430015564
0.4196564257144928 0.053503282368183136 -0.2925795912742615
-0.45930755138397217 0.08608143031597137 0.05151528865098953
-0.11115661263465881 0.30714502930641174 0.04702949896454811
0.21989116072654724 -0.3008301258087158 0.02761148288846016
-0.3578518331050873 0.23197054862976074 -0.0649578645825386
0.4164653420448303 -0.005205423105508089 -0.37718304991722107
0.29432588815689087 -0.09843026101589203 -0.3418084383010864
-0.49627062678337097 -0.09749118983745575 0.053124893456697464
-0.41242358088493347 0.23180194199085236 -0.02909807302057743
-0.06994316726922989 0.17237621545791626 0.21349310874938965
-0.20638152956962585 0.24496273696422577 0.05134215205907822
0.4071793556213379 0.3143656253814697 0.0308417659252882
-0.10078763216733932 -0.11774910241365433 0.2769039273262024
-0.3664715886116028 -0.2051551192998886 -0.06997143477201462
-0.010538287460803986 0.1578676551580429 0.30242085456848145
-0.5651643872261047 -0.10690473765134811 0.030077483505010605
0.23229698836803436 -0.24091093242168427 0.05072149261832237
-0.3243813216686249 0.0019769263453781605 0.10937993973493576
0.4047255218029022 0.2726498246192932 -0.3656766414642334
-0.06604336202144623 0.17461639642715454 -0.07118075340986252
0.29955095052719116 -0.1728624701499939 -0.37117573618888855
-0.06317876279354095 0.007416062988340855 -0.07028455287218094
0.03768875077366829 0.19750241935253143 0.14593344926834106
0.3093607425689697 0.314419150352478 -0.26692014932632446
-0.31771373748779297 0.1495126485824585 0.05096825957298279
-0.297572523355484 -0.3101261556148529 -0.006457908544689417
-0.437590628862381 -0.25880560278892517 0.05182058364152908
-0.506133496761322 0.1172785758972168 0.05522758513689041
-0.3628014624118805 -0.30385658144950867 0.04057406261563301
0.3534489870071411 0.3121449947357178 0.04608676955103874
-0.4754847586154938 -0.12130360305309296 -0.06773314625024796
0.41886845231056213 0.04489906132221222 -0.1873178780078888
0.32274848222732544 0.31557363271713257 -0.25507277250289917
-0.29709604382514954 -0.2760915756225586 0.048549894243478775
-0.031519923359155655 -0.19305618107318878 0.16623550653457642
0.29725372791290283 -0.04913009703159332 -0.39581263065338135
0.16434557735919952 0.2680981457233429 -0.07134170085191727
0.4198220670223236 0.12857918441295624 -0.3227272927761078
-0.3561723232269287 -0.3141273856163025 -0.03195192664861679
0.07802754640579224 -0.049858398735523224 -0.07089132815599442
-0.45339077711105347 0.09858804941177368 -0.06957406550645828
0.13705819845199585 -0.24717801809310913 0.04877898469567299
-0.21304279565811157 0.12525460124015808 -0.06993905454874039
0.10894887149333954 -0.09243949502706528 -0.07452020794153214
-0.5103985071182251 0.2599543035030365 0.05542430281639099
0.19101804494857788 -0.16396328806877136 -0.0742199495434761
0.04611460492014885 0.05042906850576401 -0.07133752107620239
-0.33709755539894104 -0.10064777731895447 0.055047597736120224
0.42238903045654297 -0.1552620828151703 -0.03885355964303017
-0.07200847566127777 -0.18172994256019592 -0.07239188998937607
0.13788220286369324 0.19719155132770538 0.27963027358055115
-0.28476083278656006 0.004336881451308727 -0.06955006718635559
-0.15451550483703613 -0.04113344848155975 0.2659431993961334
-0.536296010017395 -0.08575064688920975 0.05769119784235954
-0.048608388751745224 0.3048335909843445 0.024019038304686546
-0.4247403144836426 0.23815742135047913 0.05332626402378082
-0.4139561653137207 -0.288368284702301 -0.06893893331289291
0.24657157063484192 0.310709685087204 0.013400871306657791
-0.2940933406352997 -0.12336353957653046 0.07573748379945755
0.19986367225646973 -0.2985692322254181 -0.07733294367790222
0.05088624730706215 -0.23298700153827667 -0.07301574945449829
0.16181175410747528 0.2004997432231903 0.06381426751613617
-0.09357774257659912 0.017842354252934456 0.3330157995223999
0.00449948338791728 0.3096524775028229 0.0120375482365489
0.07733935862779617 -0.30382367968559265 -0.022340238094329834
-0.4655740261077881 -0.2838464081287384 -0.07234013825654984
0.15782809257507324 -0.15989768505096436 -0.0762392058968544
0.09499554336071014 -0.19473421573638916 0.04954387992620468
-0.35604622960090637 -0.23077721893787384 -0.07147242873907089
0.3192887306213379 -0.2945139408111572 -0.3089211583137512
-0.5596362352371216 0.2167852520942688 -0.04628914222121239
0.3923753499984741 -0.022052306681871414 -0.39591890573501587
-0.49190500378608704 0.08123286068439484 0.056857164949178696
0.3557230532169342 0.0037174804601818323 -0.3952781558036804
0.30441510677337646 -0.2916868329048157 -0.2803210914134979
0.23882059752941132 -0.3014691472053528 -0.010037336498498917
0.25126320123672485 0.19760635495185852 0.1684546172618866
0.005861429963260889 -0.17333272099494934 0.2879323661327362
-0.3776322901248932 -0.01878117024898529 -0.07175325602293015
0.11810362339019775 0.25424790382385254 -0.07013548910617828
-0.43898311257362366 -0.12530826032161713 -0.027303015813231468
0.3580646514892578 -0.15113550424575806 -0.39540427923202515
0.31667596101760864 -0.2055438607931137 -0.22610723972320557
0.34412458539009094 0.20458324253559113 -0.3912528455257416
0.037504713982343674 0.10440632700920105 0.4228571057319641
0.04541482403874397 0.15965695679187775 0.3556792438030243
-0.2267640382051468 0.30523544549942017 0.03338439017534256
-0.2435436248779297 0.30350446701049805 -0.017609985545277596
0.2676284909248352 0.15674784779548645 0.10150089859962463
0.19219638407230377 0.2006843537092209 0.20782549679279327
-0.06213163956999779 0.18386346101760864 0.1829109936952591
-0.2401866465806961 -0.22571279108524323 0.053637269884347916
-0.526727020740509 -0.14145541191101074 -0.06539034843444824
0.41435524821281433 -0.23273064196109772 -0.25675517320632935
-0.07254856824874878 0.09531858563423157 0.3183805048465729
-0.40984711050987244 0.30534008145332336 -0.042792610824108124
0.10852362960577011 -0.11052572727203369 -0.07310467958450317
0.2900893986225128 -0.19268813729286194 0.09242355078458786
-0.14650239050388336 -0.24233923852443695 -0.07265700399875641
0.41803526878356934 0.249622642993927 -0.3612542450428009
0.41760456562042236 -0.2509041130542755 -0.17368623614311218
0.41916537284851074 0.015268762595951557 -0.19485746324062347
-0.1150171309709549 -0.07881532609462738 -0.07128182798624039
0.26431378722190857 -0.07974563539028168 0.10725322365760803
0.04753344878554344 0.016258204355835915 0.43075525760650635
-0.028642134740948677 0.12360519170761108 0.33947277069091797
0.29079583287239075 0.30033889412879944 -0.17428246140480042
-0.1942375898361206 0.04546769708395004 -0.07349349558353424
0.4173348844051361 -0.11767826229333878 -0.2784522473812103
-0.5564202070236206 -0.19522295892238617 0.02388235181570053
0.1285351663827896 -0.17159397900104523 -0.07373528182506561
-0.5656182765960693 -0.04295622929930687 -0.010078294202685356
0.08268143981695175 -0.3020903170108795 -0.07680244743824005
0.29542216658592224 -0.16047802567481995 -0.1789892017841339
-0.3993590176105499 0.0996730774641037 0.052146464586257935
0.09638509154319763 0.1555107682943344 0.3820210099220276
-0.5188011527061462 0.2791522145271301 -0.018219107761979103
0.010068563744425774 -0.17648665606975555 0.2748238444328308
-0.4517821669578552 -0.13383372128009796 -0.024910319596529007
0.18548838794231415 -0.09136442840099335 0.28494471311569214
-0.560772180557251 -0.1961030662059784 -0.06072698161005974
0.29051247239112854 0.21484287083148956 0.051547396928071976
0.4192069470882416 -0.06603946536779404 -0.22513310611248016
-0.4576074481010437 -0.3086239993572235 0.028067929670214653
-0.36068063974380493 -0.30894556641578674 -0.0394403450191021
0.1327550858259201 0.22466956079006195 -0.07089022547006607
0.0045510558411479 -0.085981085896492 -0.07509340345859528
0.22491034865379333 0.093326136469841 0.24370260536670685
0.06185458227992058 0.06478217989206314 0.41192877292633057
0.2219470590353012 0.3160170018672943 -0.05540606752038002
-0.17585350573062897 -0.21109521389007568 0.050628531724214554
0.3215201199054718 0.3149215281009674 -0.19401413202285767
-0.21840184926986694 -0.16272208094596863 0.09326959401369095
-0.30604782700538635 -0.08640573173761368 0.1017211452126503
