0.030090 0.289360 0.246328 
0.058334 0.289612 0.243608 
0.115354 0.290424 0.246440 
0.128394 0.290540 0.244240 
0.131226 0.290012 0.243584 
0.132574 0.290928 0.243312 
0.017342 0.291708 0.248392 
0.025390 0.291616 0.247552 
0.029390 0.290492 0.246652 
0.031490 0.291200 0.245980 
0.042306 0.290952 0.244696 
0.058314 0.291208 0.243992 
0.063906 0.291840 0.244308 
0.075310 0.292536 0.245176 
0.083194 0.293156 0.245732 
0.098158 0.292840 0.246860 
0.126434 0.292500 0.245472 
0.124262 0.294064 0.246384 
0.129398 0.293348 0.245096 
-0.062778 0.295692 0.244540 
0.031914 0.295464 0.246644 
0.062754 0.294808 0.244780 
0.133614 0.294956 0.244316 
0.005650 0.298300 0.250628 
0.020758 0.295844 0.248384 
0.030178 0.296068 0.247336 
0.065126 0.296416 0.245556 
0.067054 0.297512 0.245732 
0.135686 0.296680 0.244052 
-0.065530 0.299256 0.244396 
0.038466 0.297288 0.246080 
0.061066 0.297592 0.245176 
0.064758 0.297788 0.245480 
0.135014 0.298848 0.244824 
0.137130 0.298860 0.243948 
-0.077434 0.297472 0.240616 
-0.061058 0.300900 0.245144 
-0.059342 0.301124 0.245624 
-0.015514 0.302344 0.250396 
0.016210 0.301048 0.249780 
0.030410 0.299944 0.247296 
0.040162 0.299500 0.245980 
0.054830 0.300160 0.245924 
0.071810 0.300560 0.247060 
-0.066930 0.301676 0.243652 
0.021038 0.301068 0.248892 
0.036646 0.301892 0.246904 
0.047346 0.301800 0.246412 
0.049978 0.299804 0.245976 
0.062738 0.301004 0.246048 
0.078282 0.304068 0.247996 
0.085774 0.303408 0.248348 
0.113494 0.302100 0.249228 
-0.048466 0.306256 0.247344 
0.024670 0.303608 0.248716 
0.031470 0.303340 0.247368 
0.062310 0.303544 0.246432 
0.067434 0.303764 0.247196 
0.072910 0.304584 0.247688 
0.089566 0.306828 0.249636 
0.129454 0.302144 0.247184 
0.144246 0.303444 0.241596 
-0.095170 0.298556 0.236460 
0.001074 0.308128 0.251484 
0.004966 0.307728 0.251072 
0.014778 0.306248 0.250332 
0.138074 0.305524 0.245152 
0.146082 0.307048 0.241268 
-0.096278 0.299756 0.237300 
-0.069582 0.304176 0.243000 
0.057682 0.305940 0.246744 
0.086102 0.309544 0.249768 
0.132910 0.307460 0.247424 
0.137650 0.306672 0.245688 
0.144622 0.308296 0.242412 
0.145366 0.309044 0.242080 
0.032130 0.309784 0.247932 
0.068110 0.309488 0.248116 
0.074910 0.309708 0.248752 
-0.090690 0.302748 0.239068 
-0.061210 0.308880 0.244644 
-0.000094 0.315576 0.251100 
0.139346 0.311352 0.245832 
0.031206 0.313068 0.248508 
0.088266 0.316040 0.250616 
-0.084814 0.305548 0.240116 
-0.078666 0.305888 0.241248 
-0.067694 0.308980 0.243208 
-0.064658 0.308748 0.243656 
-0.062178 0.309964 0.244496 
-0.055742 0.311932 0.245760 
-0.052066 0.313592 0.245868 
-0.049910 0.314160 0.245932 
0.038806 0.314568 0.247900 
0.067858 0.317456 0.248812 
0.076930 0.317608 0.249608 
0.080146 0.317484 0.250020 
-0.062674 0.311112 0.244052 
-0.060218 0.312144 0.245060 
0.139906 0.316496 0.246512 
0.145870 0.317232 0.243444 
-0.054054 0.315012 0.245488 
0.080890 0.322216 0.250404 
0.098418 0.320988 0.252288 
-0.038586 0.321804 0.247088 
-0.030106 0.323912 0.247888 
0.082206 0.325396 0.251036 
-0.044890 0.320812 0.245996 
-0.031586 0.324368 0.247940 
-0.028386 0.325056 0.248008 
-0.002062 0.330716 0.248880 
0.082450 0.327620 0.251000 
-0.043074 0.322816 0.246148 
0.024386 0.328064 0.248764 
0.075554 0.330320 0.250036 
0.106682 0.328084 0.253532 
-0.039798 0.323848 0.246260 
0.067170 0.332088 0.248956 
0.141442 0.328060 0.248148 
0.144074 0.328412 0.246560 
-0.019782 0.332196 0.247576 
-0.015582 0.332956 0.247980 
0.151050 0.330908 0.243108 
-0.028426 0.329836 0.247244 
0.082570 0.336796 0.250492 
-0.016002 0.335456 0.247608 
0.074470 0.340344 0.249088 
-0.034294 0.330264 0.246580 
0.040470 0.343412 0.246764 
0.142462 0.339404 0.248940 
0.152090 0.338668 0.244240 
-0.029402 0.333224 0.246768 
0.058878 0.346252 0.247628 
0.074218 0.346664 0.248836 
0.058126 0.349016 0.247672 
0.144318 0.345792 0.248784 
-0.018134 0.339164 0.247144 
0.059094 0.350348 0.246900 
0.063650 0.351500 0.247128 
0.097178 0.347108 0.252032 
0.067618 0.352392 0.247556 
-0.025106 0.338044 0.246668 
-0.019462 0.340004 0.247184 
-0.009158 0.345088 0.246944 
0.042218 0.356800 0.244680 
0.076446 0.354796 0.248592 
0.078338 0.354388 0.248704 
0.144334 0.352452 0.249036 
0.016554 0.354796 0.245896 
0.063610 0.357808 0.246236 
0.098990 0.354448 0.251536 
0.018366 0.357044 0.244864 
0.075266 0.358912 0.247564 
0.142946 0.357072 0.249880 
0.007022 0.353836 0.245908 
0.043650 0.360568 0.244104 
0.077850 0.360556 0.247832 
0.154646 0.357120 0.244264 
0.071626 0.361192 0.246232 
0.144306 0.358992 0.249428 
-0.018318 0.344956 0.246188 
-0.017526 0.345440 0.246024 
0.017898 0.359848 0.245412 
0.037138 0.363756 0.244364 
0.043446 0.363824 0.243848 
0.065214 0.364012 0.245276 
0.102530 0.361244 0.251340 
-0.013126 0.348440 0.246676 
0.030118 0.363436 0.244276 
0.075122 0.364996 0.245916 
-0.004110 0.352340 0.246428 
0.042390 0.366268 0.243936 
0.075058 0.366260 0.246376 
0.078998 0.366000 0.247236 
0.141038 0.364184 0.250060 
0.144462 0.363432 0.248876 
0.154314 0.363376 0.244604 
0.017630 0.362036 0.245048 
0.032122 0.366184 0.244256 
0.034758 0.366344 0.243888 
0.053442 0.367864 0.244508 
0.064846 0.366880 0.244488 
0.016570 0.362060 0.244672 
0.068314 0.367760 0.245320 
0.079350 0.367612 0.247388 
0.153518 0.366536 0.245636 
0.074126 0.368900 0.246040 
0.075222 0.369268 0.245928 
0.156866 0.367280 0.244072 
-0.000970 0.357000 0.246248 
0.005266 0.359536 0.245436 
0.018310 0.364396 0.244720 
0.033666 0.368244 0.244008 
0.067626 0.369460 0.244988 
0.028498 0.367724 0.244140 
0.052570 0.370980 0.244780 
0.096102 0.373200 0.250408 
0.136742 0.371376 0.249920 
0.150686 0.369640 0.246772 
0.153278 0.369908 0.246028 
0.026778 0.368060 0.243896 
0.029934 0.368624 0.244032 
0.053290 0.371280 0.244532 
0.072114 0.371844 0.245680 
0.079298 0.371892 0.247144 
0.130482 0.372900 0.252184 
0.154346 0.370660 0.245156 
0.068530 0.372392 0.245628 
0.145278 0.372656 0.249552 
0.154090 0.372188 0.245960 
0.137306 0.375280 0.250960 
0.032850 0.371132 0.243736 
0.053882 0.373248 0.244708 
0.072518 0.373960 0.245988 
0.122118 0.378208 0.253776 
0.129014 0.378352 0.253268 
0.144810 0.375860 0.250008 
0.151270 0.375800 0.247432 
0.048898 0.374752 0.244596 
0.148142 0.377108 0.248900 
0.160494 0.377796 0.244152 
0.029994 0.372256 0.244216 
0.076890 0.377428 0.247820 
0.131906 0.381744 0.254332 
0.035982 0.373964 0.243876 
0.148494 0.379380 0.249344 
0.065126 0.377880 0.245920 
0.066522 0.377656 0.245608 
0.140334 0.382176 0.252660 
0.145906 0.380592 0.250388 
0.045502 0.376584 0.244388 
0.143074 0.382960 0.251220 
0.113298 0.386832 0.253892 
0.119730 0.387116 0.254784 
0.074506 0.381496 0.247572 
0.123934 0.387776 0.255956 
0.078334 0.383632 0.248596 
0.094682 0.386600 0.251364 
0.122134 0.389004 0.255232 
0.125850 0.389396 0.256148 
0.139678 0.389572 0.252860 
0.041298 0.384656 0.248340 
0.138146 0.395020 0.253308 
0.166790 0.396548 0.249848 
0.183686 0.398844 0.245028 
0.114406 0.398268 0.255348 
0.120306 0.398204 0.256468 
0.177458 0.400452 0.247368 
0.183246 0.399996 0.245796 
0.183662 0.399888 0.245576 
0.178382 0.401204 0.247840 
0.188110 0.400332 0.244488 
0.188254 0.401416 0.245292 
0.117162 0.404200 0.253168 
0.117214 0.421740 0.250684 
-0.079314 0.252348 0.234772 
-0.022422 0.260736 0.242964 
-0.078002 0.263180 0.237020 
-0.063138 0.264200 0.241492 
-0.055650 0.263564 0.242104 
-0.049982 0.263168 0.242600 
-0.075922 0.265652 0.238560 
-0.025254 0.264588 0.244104 
-0.016842 0.265256 0.244236 
-0.071758 0.268056 0.240072 
-0.038766 0.266972 0.244664 
-0.019098 0.266648 0.244864 
-0.012110 0.266572 0.244596 
-0.028698 0.268580 0.245480 
-0.024450 0.267916 0.245292 
-0.013514 0.267280 0.244792 
0.032874 0.269852 0.241224 
0.038522 0.270628 0.240824 
-0.033262 0.269820 0.245872 
-0.027718 0.269512 0.245592 
-0.015386 0.268596 0.245232 
0.020770 0.271408 0.243068 
-0.027302 0.270540 0.245964 
-0.023146 0.270020 0.245796 
-0.018706 0.269688 0.245532 
-0.015242 0.270172 0.245692 
-0.013298 0.269876 0.245584 
-0.008098 0.270920 0.245684 
0.048014 0.275520 0.241216 
0.052278 0.275920 0.240644 
-0.036162 0.272588 0.246524 
-0.028274 0.272324 0.246544 
-0.024526 0.272448 0.246440 
-0.023134 0.272276 0.246500 
-0.020606 0.271684 0.246308 
-0.013170 0.271100 0.245956 
-0.001034 0.272388 0.245616 
0.038322 0.276472 0.242800 
-0.086534 0.275264 0.235460 
-0.066762 0.275000 0.242176 
-0.056590 0.274888 0.244400 
-0.048950 0.274324 0.245300 
-0.035070 0.274808 0.246804 
0.054510 0.279048 0.241684 
0.061066 0.277748 0.240684 
-0.059210 0.277960 0.244356 
-0.053230 0.276060 0.245104 
-0.008922 0.275576 0.246912 
-0.005634 0.275608 0.246764 
0.001598 0.276156 0.246536 
0.042138 0.278832 0.242712 
0.069490 0.281996 0.242156 
-0.082446 0.279952 0.237892 
0.003046 0.277576 0.246808 
0.057118 0.281812 0.242368 
0.095050 0.282960 0.243972 
0.097374 0.283976 0.244496 
0.122582 0.283216 0.243368 
0.134322 0.283372 0.240780 
-0.059426 0.284660 0.245504 
-0.016210 0.279180 0.248008 
-0.006050 0.281020 0.248112 
0.075154 0.286404 0.243712 
0.079346 0.286128 0.244152 
0.128122 0.285192 0.242992 
0.132586 0.285108 0.241768 
0.138194 0.284380 0.239672 
-0.064178 0.286168 0.244008 
-0.060246 0.285620 0.245188 
0.105158 0.285732 0.245184 
-0.053402 0.286536 0.246788 
0.076678 0.288892 0.244536 
0.132558 0.288100 0.242712 
-0.064762 0.289580 0.244036 
0.072678 0.290092 0.244872 
0.118350 0.288916 0.245860 
0.134274 0.288880 0.242444 
-0.065662 0.290624 0.243672 
0.125702 0.291668 0.245480 
0.053030 0.290904 0.244288 
0.065098 0.293424 0.245196 
0.083670 0.293572 0.245964 
0.117746 0.292532 0.247028 
0.132998 0.291720 0.243820 
-0.078538 0.292548 0.240280 
0.005822 0.293036 0.249900 
0.015154 0.293692 0.249016 
0.062306 0.293712 0.245008 
0.137546 0.294408 0.242620 
-0.066482 0.295580 0.244156 
0.001242 0.296136 0.250656 
0.078706 0.296496 0.246448 
0.087282 0.297252 0.247468 
0.089978 0.297096 0.247576 
0.106950 0.297076 0.248328 
0.128462 0.295168 0.245912 
0.141046 0.295244 0.241132 
-0.056594 0.299196 0.246236 
0.003866 0.296752 0.250868 
0.074046 0.297224 0.246480 
0.125786 0.296516 0.246888 
0.133250 0.297704 0.245324 
0.139210 0.297348 0.242752 
-0.060238 0.300188 0.246000 
-0.000278 0.300044 0.251348 
0.015274 0.299684 0.249792 
0.028726 0.298524 0.248156 
0.033414 0.297532 0.247020 
0.074762 0.300212 0.247260 
0.079450 0.299668 0.247496 
0.086750 0.300236 0.247964 
0.133054 0.299104 0.245460 
0.140006 0.299740 0.243104 
-0.062206 0.301416 0.245132 
-0.005322 0.301360 0.251408 
0.000602 0.302164 0.251660 
0.083262 0.302296 0.248128 
0.092622 0.302404 0.249000 
-0.068850 0.300588 0.243764 
0.004254 0.303072 0.251524 
0.035090 0.301464 0.247016 
0.135042 0.303004 0.245936 
0.136222 0.303092 0.245512 
0.059518 0.303604 0.246708 
0.091622 0.306308 0.249788 
0.140422 0.303852 0.243992 
-0.107966 0.301740 0.238844 
-0.056886 0.305716 0.246544 
-0.003726 0.308332 0.251500 
0.009434 0.305720 0.250988 
0.014718 0.305452 0.250596 
0.039586 0.305736 0.247396 
0.045466 0.305152 0.247056 
0.067198 0.305044 0.247768 
0.123418 0.304704 0.249020 
0.135326 0.305700 0.246464 
-0.106718 0.302468 0.240284 
-0.103982 0.301632 0.238728 
-0.065874 0.304860 0.244188 
-0.062070 0.306312 0.244900 
0.030170 0.305848 0.248660 
0.080694 0.309344 0.249380 
0.095878 0.309612 0.250492 
-0.041702 0.312748 0.247796 
0.134894 0.309184 0.247320 
-0.097858 0.302660 0.239088 
-0.094358 0.302092 0.238968 
-0.037974 0.314544 0.248296 
0.007482 0.313228 0.251248 
0.016194 0.311924 0.250852 
0.021146 0.311248 0.250132 
0.054190 0.311672 0.247232 
0.061898 0.311832 0.248204 
0.083650 0.314136 0.250216 
0.122426 0.311360 0.250524 
-0.088422 0.303984 0.240404 
-0.082474 0.304388 0.240684 
-0.064510 0.308372 0.244080 
0.039614 0.313352 0.247964 
0.084766 0.316872 0.250600 
0.134798 0.313064 0.248412 
-0.061126 0.310312 0.245436 
0.045446 0.315736 0.247852 
-0.086718 0.305984 0.241072 
-0.044618 0.316884 0.247244 
-0.031546 0.320712 0.248388 
0.021910 0.318676 0.250268 
0.057350 0.316564 0.248268 
0.133306 0.317408 0.249636 
-0.056618 0.313756 0.245956 
-0.017410 0.325216 0.249516 
-0.032646 0.323296 0.248156 
0.036918 0.321324 0.248704 
0.044790 0.321236 0.248004 
0.084582 0.325352 0.251288 
-0.058786 0.315132 0.245556 
-0.019730 0.328060 0.248772 
-0.016326 0.328264 0.249120 
0.020958 0.326060 0.250148 
0.050882 0.325836 0.248176 
0.086738 0.327604 0.251660 
0.147886 0.325360 0.243952 
-0.017730 0.329884 0.248832 
-0.001854 0.330916 0.249536 
0.043726 0.329296 0.248124 
0.054402 0.330604 0.248688 
0.084302 0.332540 0.251020 
0.141722 0.329868 0.248328 
-0.025566 0.329660 0.248032 
0.088958 0.335156 0.251840 
0.136830 0.330840 0.250776 
0.061366 0.338808 0.248616 
0.080246 0.337356 0.250272 
0.097758 0.339284 0.252748 
-0.032902 0.331172 0.247376 
0.025758 0.346360 0.247492 
0.078942 0.345520 0.249976 
0.142210 0.343952 0.249824 
-0.039450 0.329964 0.246056 
-0.028366 0.334104 0.247360 
-0.025474 0.335304 0.247672 
-0.015446 0.339680 0.247620 
0.064926 0.346992 0.248196 
0.090766 0.346100 0.251584 
-0.016822 0.339828 0.247596 
0.079482 0.351472 0.249508 
0.141274 0.348524 0.250376 
0.142582 0.347448 0.250128 
-0.022306 0.338020 0.247300 
-0.017074 0.340436 0.247464 
-0.016770 0.341692 0.247240 
-0.005290 0.347008 0.247092 
0.023958 0.355256 0.246284 
0.034894 0.354780 0.245440 
0.084786 0.356496 0.249908 
0.142082 0.355176 0.250532 
-0.020698 0.341308 0.247480 
0.028342 0.357820 0.245676 
0.082290 0.358008 0.249172 
-0.019094 0.342596 0.247168 
0.052282 0.360344 0.245496 
0.072854 0.359700 0.247192 
0.081314 0.359408 0.248624 
0.085382 0.359632 0.249440 
0.011382 0.356672 0.245952 
0.015018 0.357460 0.245912 
0.063802 0.362412 0.246056 
0.141650 0.359516 0.250408 
0.013814 0.358424 0.245680 
0.094214 0.361676 0.250888 
0.144054 0.360492 0.250344 
0.010470 0.357768 0.245924 
0.031586 0.364184 0.244700 
0.032938 0.363972 0.244540 
0.069122 0.364908 0.246004 
0.143478 0.362000 0.249364 
-0.005442 0.351660 0.246888 
0.008018 0.357664 0.245756 
0.025606 0.363260 0.245356 
0.073094 0.365364 0.246196 
0.105310 0.365628 0.252856 
0.002394 0.356252 0.246432 
0.012118 0.359432 0.245792 
0.021382 0.362856 0.245412 
0.040286 0.367156 0.244472 
0.047786 0.367416 0.244780 
0.052742 0.367168 0.245264 
0.075878 0.367296 0.246988 
0.155138 0.364596 0.245480 
0.029598 0.365868 0.244392 
0.032618 0.366548 0.244580 
0.045574 0.368588 0.244824 
0.056658 0.368660 0.245388 
0.061022 0.368336 0.245680 
0.083230 0.367480 0.248876 
0.102902 0.370112 0.251916 
-0.003678 0.355796 0.246684 
0.031186 0.367004 0.244348 
0.155506 0.368164 0.245428 
0.024962 0.366672 0.244900 
0.134458 0.371280 0.252720 
0.011990 0.363216 0.245648 
0.016494 0.364452 0.245188 
0.037530 0.369860 0.244400 
0.072826 0.370300 0.246680 
0.107746 0.372852 0.252420 
0.133242 0.371948 0.252424 
0.154634 0.369120 0.245780 
0.019126 0.365672 0.245088 
0.025626 0.367892 0.244484 
0.033798 0.369544 0.244436 
0.051682 0.371512 0.245488 
0.061074 0.371800 0.245644 
0.065286 0.371988 0.245636 
0.071082 0.371332 0.246048 
0.077318 0.371568 0.247456 
0.140318 0.372620 0.251192 
0.141170 0.372132 0.251616 
0.153730 0.370636 0.246460 
0.033290 0.370456 0.244424 
0.040362 0.371352 0.244512 
0.046390 0.371572 0.244920 
0.094378 0.374628 0.250928 
0.105206 0.375068 0.253012 
0.130586 0.375540 0.253344 
0.137842 0.374920 0.252524 
0.072322 0.373232 0.246812 
0.076918 0.373668 0.247444 
0.107506 0.376844 0.253424 
0.143994 0.374720 0.250352 
0.043122 0.372948 0.244980 
0.049762 0.373012 0.245496 
0.142498 0.375960 0.251116 
0.152922 0.374772 0.247956 
0.078686 0.375896 0.248812 
0.113926 0.380056 0.253592 
0.141130 0.377712 0.252524 
0.145242 0.376560 0.250632 
0.078034 0.377076 0.248132 
0.091326 0.378212 0.251240 
0.034170 0.373700 0.244664 
0.130674 0.382604 0.255784 
0.120158 0.384260 0.255096 
0.035790 0.375680 0.244892 
0.069066 0.378916 0.247220 
0.037502 0.376468 0.245280 
0.077542 0.380912 0.249236 
0.132566 0.385656 0.255464 
0.048186 0.378396 0.246068 
0.116914 0.387328 0.255564 
0.050266 0.379620 0.246744 
0.112646 0.387380 0.255304 
0.123594 0.387912 0.256964 
0.081042 0.383536 0.250428 
0.170106 0.387396 0.246780 
0.099138 0.387312 0.253636 
0.117350 0.389564 0.255780 
0.130174 0.389920 0.256616 
0.167446 0.387664 0.247664 
0.047882 0.383068 0.247264 
0.103130 0.390000 0.254324 
0.158354 0.389216 0.250776 
0.039750 0.383684 0.248760 
0.109490 0.394296 0.255612 
0.170786 0.395612 0.249032 
0.089442 0.393628 0.254092 
0.142634 0.397428 0.253928 
0.165230 0.397648 0.251332 
0.181910 0.400892 0.246924 
0.116418 0.399556 0.256944 
0.124138 0.399008 0.256644 
0.183658 0.402632 0.247232 
0.178974 0.404656 0.249624 
0.120038 0.409316 0.253412 
0.116970 0.422496 0.250608 
-0.080978 0.256692 0.235436 
-0.073722 0.259776 0.238336 
-0.070862 0.259000 0.239184 
-0.073806 0.262648 0.238960 
-0.070634 0.264940 0.240024 
-0.028266 0.264080 0.244100 
-0.073942 0.265656 0.239404 
-0.066086 0.265692 0.241256 
-0.066418 0.269760 0.242172 
-0.060122 0.269696 0.243444 
-0.055690 0.268996 0.243868 
-0.040338 0.268756 0.245352 
-0.039058 0.270452 0.245852 
-0.037050 0.269824 0.245824 
-0.027542 0.270100 0.246052 
-0.077390 0.271848 0.239632 
-0.042030 0.271408 0.246024 
-0.028538 0.271512 0.246428 
-0.018918 0.271264 0.246192 
0.123438 0.276648 0.241236 
-0.080350 0.274208 0.238712 
-0.033182 0.272044 0.246528 
-0.028074 0.272048 0.246588 
-0.024174 0.272836 0.246884 
-0.002806 0.272880 0.246064 
0.003262 0.273260 0.245752 
-0.087942 0.275840 0.235412 
-0.023722 0.274256 0.247284 
-0.018378 0.272972 0.246592 
-0.015634 0.274500 0.247192 
0.043978 0.279184 0.243044 
-0.083018 0.276936 0.237568 
-0.056254 0.277712 0.245496 
-0.029450 0.275344 0.247416 
-0.020426 0.275808 0.247532 
-0.013486 0.274824 0.247180 
0.034878 0.280268 0.244304 
0.064726 0.281188 0.241940 
-0.084538 0.280104 0.237316 
-0.043634 0.276944 0.246656 
-0.029214 0.276776 0.247668 
-0.027870 0.277064 0.247680 
-0.023730 0.276436 0.247712 
0.012702 0.279392 0.246416 
0.029118 0.281136 0.245108 
-0.081998 0.282036 0.238660 
-0.000470 0.279960 0.247768 
0.021602 0.281388 0.245984 
0.039270 0.283800 0.244632 
0.051170 0.282376 0.242908 
0.063738 0.284040 0.242920 
-0.049314 0.283968 0.247372 
0.084238 0.285936 0.244504 
-0.079994 0.284768 0.239708 
-0.053926 0.286316 0.246872 
0.070030 0.286856 0.244176 
-0.078702 0.287344 0.240116 
-0.010538 0.284876 0.249344 
0.037790 0.287060 0.245468 
0.041658 0.286320 0.244820 
0.054362 0.287380 0.244084 
0.070918 0.287704 0.244280 
0.075426 0.289072 0.244696 
0.061150 0.289292 0.244180 
0.111846 0.290096 0.246772 
0.128730 0.290580 0.244768 
0.130830 0.289904 0.243820 
0.055930 0.290424 0.244696 
0.103762 0.291676 0.247076 
-0.059022 0.293028 0.246384 
-0.056082 0.294332 0.247004 
0.012710 0.292700 0.249400 
0.127638 0.293200 0.245752 
0.130698 0.293608 0.245192 
-0.054030 0.295320 0.247636 
-0.010082 0.292152 0.250460 
0.109726 0.294368 0.247768 
0.128006 0.294224 0.245920 
0.130782 0.293704 0.245084 
0.088278 0.297012 0.247608 
0.094762 0.298068 0.248264 
0.100122 0.297524 0.248408 
0.133742 0.295568 0.244664 
-0.070586 0.297256 0.243752 
-0.042226 0.300808 0.249492 
-0.009950 0.297092 0.251188 
0.058986 0.297156 0.246092 
0.102602 0.299948 0.248916 
0.131214 0.296672 0.245836 
-0.073374 0.297800 0.242824 
-0.067050 0.299156 0.244572 
-0.063934 0.298964 0.245448 
-0.048094 0.301192 0.248568 
0.084226 0.300848 0.248064 
0.126454 0.297904 0.247048 
0.018394 0.300800 0.249784 
0.099538 0.301812 0.249332 
0.127818 0.300812 0.247608 
-0.055470 0.304172 0.247052 
-0.014682 0.305804 0.251572 
0.020922 0.303180 0.249824 
0.062274 0.301692 0.247016 
0.090654 0.305272 0.249588 
0.094730 0.304236 0.249776 
0.103566 0.304660 0.250044 
0.114798 0.303640 0.249712 
0.124826 0.301528 0.248328 
0.089658 0.306848 0.249736 
0.105326 0.306324 0.250408 
0.111390 0.305992 0.250380 
0.127958 0.302772 0.248088 
0.135230 0.304352 0.246476 
-0.060074 0.305068 0.245988 
-0.039114 0.309992 0.249196 
0.013062 0.305812 0.251160 
0.027962 0.305032 0.248900 
0.064030 0.305144 0.247940 
0.071006 0.306744 0.248212 
0.083522 0.307636 0.249360 
-0.104870 0.302616 0.240340 
-0.065418 0.304916 0.244524 
-0.017770 0.313512 0.251440 
0.139718 0.308252 0.245372 
-0.101266 0.302200 0.240128 
-0.083606 0.302572 0.240904 
-0.034378 0.314320 0.249328 
0.019726 0.309800 0.250612 
0.092414 0.313308 0.250924 
-0.102562 0.303392 0.241208 
-0.098762 0.301996 0.239768 
-0.065338 0.307336 0.244552 
-0.060406 0.308168 0.245848 
-0.018298 0.317848 0.250916 
0.075022 0.311524 0.248968 
0.131942 0.311268 0.248848 
-0.056066 0.310500 0.246468 
-0.050230 0.313160 0.247016 
-0.033294 0.317552 0.248936 
-0.029510 0.318656 0.249400 
0.022090 0.313596 0.250688 
0.048586 0.312656 0.247716 
0.072466 0.313452 0.249028 
0.086398 0.315884 0.250760 
0.144290 0.314048 0.244096 
-0.051558 0.313428 0.247024 
-0.046726 0.314864 0.247596 
-0.026126 0.320040 0.249828 
-0.018126 0.321024 0.250436 
0.071598 0.316704 0.249352 
0.093734 0.319316 0.251848 
0.119046 0.317348 0.252092 
-0.074474 0.308716 0.243152 
-0.029070 0.321104 0.248888 
-0.013834 0.323248 0.250380 
0.020454 0.319436 0.250880 
0.098626 0.319312 0.252228 
0.109182 0.320412 0.252848 
0.112338 0.318600 0.252680 
0.123690 0.318692 0.251880 
0.141078 0.316664 0.246500 
-0.082754 0.307768 0.242096 
-0.054314 0.314340 0.246332 
-0.008762 0.324140 0.250660 
0.055258 0.320168 0.248676 
-0.082342 0.308860 0.241836 
-0.048894 0.317748 0.247088 
0.047582 0.320944 0.248764 
0.087806 0.324304 0.251708 
0.089334 0.324476 0.251872 
0.095018 0.324884 0.252436 
0.110154 0.324024 0.253452 
-0.076278 0.310580 0.242880 
-0.009938 0.329644 0.249432 
0.130286 0.325144 0.252012 
0.136118 0.324332 0.250208 
-0.070542 0.314108 0.244292 
0.089518 0.329880 0.252064 
0.090350 0.328632 0.252208 
0.094234 0.330820 0.252900 
-0.030406 0.327636 0.248236 
-0.032138 0.328100 0.248084 
0.008478 0.335984 0.249548 
0.014882 0.336016 0.250156 
0.146550 0.332536 0.246748 
-0.024414 0.333008 0.248476 
0.067062 0.339220 0.249052 
0.139954 0.337636 0.250596 
-0.033850 0.329312 0.247764 
-0.018126 0.336532 0.248508 
0.009330 0.342264 0.248632 
0.015202 0.342056 0.249196 
0.090434 0.340132 0.251896 
0.086114 0.344180 0.251212 
-0.024962 0.334820 0.248012 
-0.021478 0.337012 0.248188 
-0.019366 0.338116 0.248060 
-0.017970 0.338644 0.248180 
0.087878 0.347372 0.251352 
0.137106 0.346760 0.252320 
-0.023126 0.336784 0.247984 
-0.014570 0.340368 0.247816 
-0.003758 0.344844 0.247872 
0.006358 0.348060 0.248032 
0.020186 0.350924 0.247916 
0.090950 0.348228 0.251824 
-0.034806 0.333448 0.246932 
-0.009302 0.343536 0.248140 
0.091650 0.350616 0.251864 
-0.028250 0.336208 0.247520 
-0.010510 0.344264 0.248064 
-0.001518 0.347956 0.247668 
0.140002 0.351856 0.251736 
0.020234 0.355652 0.247124 
0.140014 0.354204 0.251444 
0.008530 0.353220 0.246924 
0.028166 0.358608 0.246328 
0.031858 0.358392 0.246252 
0.085318 0.357544 0.250364 
0.091430 0.356112 0.251512 
0.139054 0.356960 0.251668 
-0.018014 0.343864 0.247464 
0.013678 0.356356 0.246984 
0.018882 0.358300 0.246064 
0.085934 0.359020 0.250292 
0.143658 0.359020 0.250484 
0.151106 0.358076 0.247420 
0.028214 0.361332 0.245732 
0.032550 0.361888 0.245880 
-0.015330 0.346508 0.247788 
-0.004850 0.351160 0.247280 
-0.000378 0.353700 0.247224 
0.025442 0.362508 0.246072 
0.034190 0.364512 0.245456 
0.041930 0.364988 0.245384 
-0.011154 0.350156 0.247664 
0.012170 0.359068 0.246276 
0.017858 0.361596 0.245752 
0.077002 0.365768 0.248156 
0.084126 0.365476 0.249944 
0.081294 0.366712 0.249312 
0.040134 0.368272 0.244684 
0.069770 0.367840 0.246648 
0.081942 0.367888 0.249252 
0.138482 0.367428 0.251996 
0.148558 0.365500 0.249384 
0.066010 0.369440 0.246500 
0.019150 0.364720 0.245720 
0.026494 0.366836 0.245616 
0.058954 0.370900 0.246412 
0.071130 0.369780 0.246836 
0.053770 0.370388 0.245712 
0.060210 0.371484 0.246600 
0.082086 0.371232 0.249372 
0.114286 0.373872 0.254440 
0.143194 0.370316 0.251228 
0.006310 0.361924 0.247056 
0.025766 0.368120 0.245092 
0.128018 0.375120 0.254680 
0.035058 0.370576 0.244904 
0.077126 0.373364 0.248060 
0.096138 0.375188 0.252428 
0.144418 0.372924 0.251392 
0.054002 0.373024 0.246248 
0.086962 0.374872 0.250720 
0.020666 0.368744 0.245932 
0.032630 0.371288 0.245296 
0.034690 0.371532 0.245196 
0.038410 0.372284 0.244940 
0.069694 0.374472 0.247432 
0.136526 0.377008 0.254088 
0.046206 0.374164 0.245316 
0.052678 0.374148 0.246236 
0.124046 0.380628 0.255996 
0.131838 0.379232 0.255344 
0.135146 0.378508 0.254256 
0.140958 0.377788 0.253568 
0.020674 0.370048 0.246164 
0.038546 0.373360 0.245244 
0.081786 0.377524 0.249608 
0.088766 0.377364 0.251508 
0.097690 0.379332 0.252760 
0.140410 0.379700 0.253960 
0.023410 0.371056 0.245196 
0.114114 0.381516 0.255316 
0.127986 0.382804 0.256908 
0.033238 0.374212 0.245232 
0.055466 0.378328 0.246748 
0.040582 0.376680 0.245612 
0.043962 0.376988 0.246156 
0.049106 0.378656 0.247220 
0.134130 0.386580 0.257492 
0.150190 0.384400 0.251400 
0.048518 0.379460 0.246716 
0.089754 0.384252 0.253192 
0.125654 0.387956 0.258156 
0.050686 0.380844 0.247788 
0.120222 0.389376 0.257536 
0.125082 0.390088 0.258836 
0.160238 0.390160 0.251400 
0.136218 0.391436 0.257000 
0.162178 0.391756 0.250976 
0.109698 0.394268 0.256968 
0.164082 0.397548 0.253268 
0.130490 0.397484 0.257580 
0.114966 0.398676 0.258232 
0.121994 0.397980 0.258428 
0.145974 0.399992 0.255212 
0.179566 0.402192 0.248408 
0.121254 0.412092 0.254128 
0.117126 0.424024 0.251028 
0.117658 0.425232 0.251060 
-0.022306 0.258716 0.242236 
0.120010 0.268628 0.238584 
0.120474 0.268188 0.238368 
-0.070266 0.265284 0.240848 
-0.075642 0.267064 0.239480 
-0.069946 0.271164 0.242140 
-0.044994 0.270072 0.245596 
-0.048550 0.271944 0.245620 
-0.041922 0.271716 0.246172 
-0.039710 0.272500 0.246524 
-0.038362 0.273972 0.247044 
-0.026190 0.276432 0.247860 
-0.038022 0.278696 0.248096 
-0.032198 0.278224 0.248032 
-0.024466 0.277216 0.248068 
0.000066 0.277924 0.247424 
0.006098 0.278704 0.247100 
0.023950 0.281892 0.246000 
-0.034854 0.279372 0.247944 
-0.014694 0.278132 0.248076 
-0.077754 0.283452 0.240924 
-0.044174 0.284544 0.248628 
-0.033814 0.280620 0.248212 
-0.019714 0.281184 0.248752 
-0.015946 0.279968 0.248612 
0.046842 0.284360 0.244036 
0.079826 0.286772 0.244544 
-0.082106 0.285500 0.239400 
-0.052682 0.286596 0.247676 
-0.029734 0.282380 0.248832 
-0.013782 0.283588 0.249380 
-0.007062 0.283208 0.248852 
0.022286 0.284972 0.246756 
0.028338 0.285856 0.246476 
0.042094 0.285636 0.245000 
0.096418 0.288860 0.246012 
-0.049278 0.286992 0.248384 
0.008142 0.286572 0.248772 
0.078226 0.289252 0.244992 
-0.054622 0.290516 0.247880 
-0.044718 0.291036 0.249388 
-0.007058 0.285928 0.249536 
-0.000502 0.286936 0.249376 
0.000106 0.288284 0.249516 
0.033790 0.288512 0.246480 
-0.074162 0.290268 0.242604 
-0.041894 0.292872 0.249548 
-0.015214 0.289180 0.250332 
-0.007978 0.289924 0.250220 
0.098138 0.293068 0.247476 
0.103726 0.293876 0.247776 
-0.079426 0.291184 0.240800 
-0.012110 0.290192 0.250452 
0.033738 0.292300 0.247292 
0.038642 0.291312 0.246152 
-0.046450 0.295872 0.249496 
0.119758 0.294744 0.247556 
0.130438 0.294996 0.245724 
-0.075554 0.294916 0.242628 
-0.058802 0.297156 0.246804 
-0.049810 0.297828 0.248476 
-0.005670 0.294920 0.251044 
0.084346 0.297404 0.247428 
0.109182 0.297372 0.248712 
-0.039106 0.299720 0.250348 
0.034026 0.296472 0.247860 
0.129442 0.297472 0.246448 
-0.077062 0.297864 0.242508 
-0.014990 0.299492 0.251636 
-0.008818 0.300328 0.251888 
0.004650 0.300352 0.251616 
0.117698 0.300000 0.248956 
-0.047834 0.302936 0.248876 
-0.043450 0.302680 0.249512 
-0.038394 0.303252 0.250220 
-0.034034 0.304736 0.250620 
-0.022066 0.303740 0.251908 
-0.015490 0.301576 0.251704 
0.050190 0.300312 0.247060 
-0.047554 0.304892 0.248996 
0.134694 0.302484 0.246472 
-0.067290 0.301772 0.244816 
-0.066826 0.301720 0.244844 
-0.017322 0.309432 0.252008 
-0.010338 0.307560 0.252304 
0.097982 0.306924 0.250444 
-0.026114 0.311288 0.251044 
0.046390 0.305236 0.248008 
0.056022 0.305232 0.247816 
0.129974 0.306892 0.248616 
0.082530 0.310756 0.249816 
0.091986 0.310544 0.250524 
0.104738 0.311372 0.251500 
0.117026 0.309316 0.250688 
0.122678 0.307380 0.249964 
0.137598 0.308576 0.246612 
-0.052338 0.309812 0.247392 
-0.048390 0.310252 0.248336 
-0.025882 0.316472 0.250664 
-0.019018 0.316060 0.251452 
0.126898 0.309780 0.250028 
-0.063130 0.307176 0.245328 
-0.050310 0.311412 0.247884 
-0.021718 0.317536 0.250936 
0.072738 0.313064 0.249232 
0.130342 0.312696 0.249740 
0.134610 0.312828 0.248500 
-0.098650 0.304180 0.241612 
-0.066594 0.307448 0.244592 
-0.063194 0.309268 0.245184 
-0.020278 0.319568 0.250652 
-0.013502 0.318776 0.251448 
0.079546 0.315468 0.249976 
0.085526 0.317336 0.250944 
0.115586 0.315652 0.252112 
0.126278 0.314788 0.250996 
0.132550 0.313316 0.249496 
0.138230 0.314608 0.247624 
-0.095670 0.304824 0.241412 
-0.049978 0.313948 0.247684 
0.067078 0.317772 0.249300 
0.109838 0.317552 0.252504 
-0.052294 0.314356 0.247372 
0.075886 0.318852 0.250020 
0.121934 0.318532 0.252204 
0.125074 0.318880 0.251840 
0.127978 0.318368 0.251344 
0.142202 0.317100 0.246108 
-0.036710 0.321036 0.248680 
0.088270 0.323852 0.251768 
0.098490 0.323272 0.252716 
0.111542 0.323296 0.253472 
0.128982 0.321464 0.251824 
0.139302 0.321236 0.248584 
-0.085706 0.309240 0.243056 
0.098798 0.325412 0.252968 
0.135282 0.323136 0.250496 
-0.040490 0.322184 0.247788 
0.012382 0.326708 0.251584 
0.038138 0.323560 0.249544 
0.080450 0.326404 0.251032 
0.124450 0.324748 0.253044 
0.126922 0.326116 0.252936 
0.130846 0.325120 0.252104 
-0.040310 0.322640 0.248224 
-0.032890 0.324980 0.248828 
-0.018750 0.329112 0.249692 
0.072850 0.330000 0.250128 
0.087398 0.330512 0.252100 
0.100330 0.328392 0.253536 
0.112034 0.328944 0.254136 
0.115766 0.328288 0.254172 
0.131190 0.328320 0.252484 
-0.039642 0.323752 0.248016 
-0.035314 0.325736 0.248092 
-0.013990 0.332280 0.249624 
0.075718 0.331680 0.250452 
0.079846 0.331732 0.251140 
0.096274 0.330988 0.253256 
0.134550 0.330240 0.251648 
0.146062 0.329692 0.246680 
-0.029570 0.328500 0.248928 
0.036630 0.332852 0.249564 
0.095654 0.334452 0.253100 
0.145118 0.331724 0.247500 
-0.068614 0.318068 0.246140 
0.042966 0.335168 0.248820 
0.078042 0.338112 0.250644 
0.096354 0.336356 0.253124 
-0.059766 0.320808 0.247260 
0.052578 0.339760 0.248824 
0.082586 0.339480 0.251300 
0.136634 0.338180 0.252132 
-0.037130 0.328668 0.247336 
-0.030214 0.330624 0.248472 
-0.027814 0.332536 0.248296 
-0.023966 0.333344 0.248680 
-0.021862 0.334784 0.248776 
0.064870 0.341784 0.249312 
0.094478 0.340784 0.252672 
0.132330 0.339408 0.253264 
-0.026418 0.333076 0.248872 
-0.022678 0.335152 0.248788 
0.026202 0.345200 0.248704 
0.058570 0.344276 0.248952 
0.091582 0.344704 0.252228 
0.094386 0.343484 0.252628 
0.133554 0.342424 0.253684 
0.135350 0.344128 0.253076 
0.145018 0.342732 0.249372 
-0.020478 0.336804 0.248540 
-0.008418 0.342312 0.248720 
0.077290 0.347012 0.250160 
0.002722 0.347596 0.247912 
0.034654 0.350664 0.247912 
0.083458 0.349396 0.251104 
0.112210 0.348332 0.254792 
0.148402 0.348772 0.248524 
0.149558 0.348712 0.247824 
-0.014098 0.341800 0.248684 
0.000998 0.347376 0.248168 
0.016746 0.352236 0.248292 
0.099462 0.349776 0.253436 
-0.003846 0.346764 0.248304 
0.042622 0.354196 0.247712 
0.046702 0.355096 0.247936 
0.138082 0.351656 0.252596 
0.022734 0.357080 0.247044 
0.041410 0.356868 0.247028 
0.077314 0.355436 0.249344 
0.090990 0.353688 0.251788 
0.098126 0.354288 0.253184 
0.132982 0.353828 0.253836 
-0.002334 0.349672 0.247632 
0.102658 0.356828 0.253764 
-0.008298 0.347508 0.248340 
0.092206 0.357740 0.252080 
0.149422 0.358540 0.248688 
-0.017058 0.344484 0.248184 
-0.000478 0.352256 0.247732 
0.080438 0.360376 0.249444 
0.021666 0.361128 0.246452 
0.036738 0.363040 0.245864 
0.136334 0.360988 0.252748 
0.083318 0.364836 0.250220 
0.104830 0.364604 0.254608 
0.086070 0.365476 0.251024 
0.140998 0.364160 0.251968 
0.147054 0.364792 0.250656 
0.151806 0.365220 0.248664 
0.035498 0.367412 0.245628 
0.107266 0.369864 0.254120 
0.020186 0.364240 0.246240 
0.022214 0.364552 0.246576 
0.074634 0.368332 0.248516 
0.102442 0.371560 0.253976 
0.139302 0.368524 0.253300 
0.142598 0.368420 0.251916 
-0.001442 0.357460 0.247684 
0.012798 0.363036 0.246932 
0.075842 0.369624 0.248008 
0.001478 0.358964 0.247564 
0.070746 0.371004 0.248168 
0.105058 0.373532 0.254308 
0.123518 0.374004 0.256600 
0.084338 0.372744 0.250524 
0.077366 0.373564 0.248972 
0.095458 0.375200 0.252668 
0.143950 0.373104 0.252228 
0.147330 0.373292 0.251704 
0.011334 0.364660 0.247064 
0.058602 0.373276 0.246752 
0.083286 0.374836 0.250072 
0.087726 0.375488 0.251660 
0.149286 0.374604 0.251264 
0.026130 0.369988 0.246028 
0.060806 0.374240 0.247564 
0.078930 0.375628 0.249552 
0.095510 0.377200 0.253264 
0.129358 0.379092 0.256768 
0.039270 0.372952 0.245612 
0.063026 0.374764 0.247252 
0.068382 0.375724 0.248080 
0.076142 0.376312 0.249724 
0.082842 0.377032 0.250732 
0.093122 0.377984 0.252608 
0.103670 0.379072 0.254272 
0.126174 0.380496 0.256236 
0.137410 0.379524 0.256168 
0.054250 0.374880 0.246916 
0.055758 0.375084 0.247436 
0.079554 0.376972 0.250888 
0.103406 0.380560 0.254984 
0.108846 0.379920 0.255272 
0.138326 0.379848 0.255340 
0.154830 0.378112 0.250172 
0.027290 0.372116 0.246084 
0.076614 0.378000 0.249776 
0.025318 0.372248 0.246564 
0.043654 0.375472 0.246072 
0.057330 0.376484 0.247928 
0.103482 0.381752 0.254596 
0.130678 0.383188 0.257404 
0.054282 0.377252 0.246976 
0.053810 0.379504 0.248064 
0.125374 0.387412 0.258284 
0.054074 0.379908 0.248188 
0.116438 0.387920 0.257836 
0.120430 0.387588 0.257964 
0.033422 0.379092 0.248296 
0.166242 0.387608 0.249092 
0.037010 0.381068 0.248564 
0.104290 0.388700 0.256700 
0.122714 0.389592 0.259176 
0.151058 0.388408 0.254332 
0.050746 0.383984 0.249952 
0.106086 0.389984 0.256516 
0.064226 0.385868 0.250672 
0.082782 0.391584 0.254396 
0.161446 0.395344 0.253592 
0.133438 0.397580 0.258964 
0.141086 0.397920 0.256764 
0.117270 0.398916 0.259548 
0.122202 0.398460 0.260020 
0.173094 0.404164 0.251668 
0.121094 0.407908 0.255356 
0.117810 0.425800 0.251388 
0.117810 0.429060 0.251464 
-0.024670 0.267024 0.245572 
-0.074514 0.274748 0.241580 
-0.068530 0.275216 0.243228 
-0.064950 0.274468 0.243832 
-0.089314 0.277276 0.237292 
-0.063634 0.278596 0.245064 
-0.058294 0.278116 0.246248 
-0.077070 0.279308 0.241416 
-0.073182 0.278936 0.242624 
-0.043518 0.278716 0.248008 
0.121922 0.283296 0.244164 
-0.092930 0.281072 0.237112 
-0.059398 0.282272 0.246492 
-0.010034 0.279060 0.248396 
-0.026490 0.281804 0.249196 
0.126038 0.286500 0.244552 
-0.068182 0.286336 0.244700 
-0.065190 0.286684 0.245404 
-0.032270 0.284300 0.249600 
-0.027114 0.282680 0.249248 
-0.072414 0.287460 0.243496 
-0.030578 0.285840 0.249780 
-0.026374 0.285084 0.249572 
0.034774 0.287748 0.246364 
-0.018638 0.288268 0.250244 
-0.018582 0.287984 0.250252 
0.028130 0.289548 0.247420 
-0.037054 0.292496 0.250404 
-0.030654 0.291876 0.250728 
-0.025302 0.290196 0.250548 
-0.020666 0.290088 0.250444 
-0.010846 0.288120 0.250256 
-0.063198 0.293860 0.246436 
-0.031710 0.296532 0.250952 
-0.023898 0.294444 0.251196 
0.010402 0.294516 0.250252 
0.022710 0.293816 0.248744 
0.028174 0.293344 0.248200 
-0.056310 0.297872 0.247880 
-0.041782 0.298800 0.250020 
-0.035662 0.297320 0.250960 
-0.015414 0.296260 0.251424 
0.000642 0.296928 0.251440 
-0.037750 0.299156 0.250900 
-0.031462 0.300208 0.251396 
-0.009990 0.297400 0.251736 
0.021690 0.297048 0.249496 
0.027574 0.296640 0.248764 
0.038554 0.295776 0.247600 
0.126902 0.296868 0.247132 
-0.042758 0.300940 0.250072 
-0.023750 0.302972 0.252304 
-0.004938 0.300084 0.252104 
-0.037390 0.305208 0.250912 
-0.033538 0.304152 0.251384 
-0.027482 0.304964 0.251892 
0.109110 0.302184 0.249768 
-0.021174 0.305732 0.252196 
0.005554 0.304140 0.252020 
0.040398 0.302840 0.247964 
0.121282 0.303028 0.249308 
-0.063314 0.302504 0.245976 
-0.042906 0.307460 0.249812 
0.063378 0.304272 0.247980 
0.111194 0.305528 0.250388 
0.007482 0.307620 0.252072 
0.039778 0.305288 0.248512 
-0.062786 0.305756 0.245916 
-0.046922 0.309408 0.248748 
0.115114 0.310740 0.251352 
-0.051602 0.309484 0.248176 
-0.041238 0.312792 0.249464 
-0.024418 0.315684 0.251212 
-0.002162 0.313988 0.252980 
0.010166 0.310888 0.252092 
-0.060310 0.308492 0.246440 
-0.040282 0.313904 0.249652 
0.052462 0.311320 0.248636 
0.084498 0.314088 0.250528 
0.109866 0.314280 0.252116 
0.123346 0.314364 0.251488 
-0.059870 0.310292 0.246420 
-0.058006 0.310436 0.247160 
-0.052170 0.312284 0.248008 
-0.022890 0.318604 0.251328 
0.031010 0.312644 0.250152 
0.036274 0.311912 0.249392 
0.120938 0.314776 0.251652 
0.005078 0.318564 0.252544 
0.047654 0.314572 0.248808 
0.073874 0.315980 0.249540 
0.097426 0.319328 0.252292 
0.112302 0.317224 0.252720 
-0.094038 0.307084 0.243268 
-0.057926 0.312344 0.246924 
-0.047258 0.315460 0.248616 
-0.036762 0.319156 0.249092 
0.007622 0.320644 0.252472 
0.014950 0.318080 0.251704 
0.079718 0.319440 0.250536 
0.123606 0.318600 0.252188 
0.136902 0.317292 0.248996 
0.090838 0.322004 0.251944 
-0.044630 0.319844 0.248016 
-0.039010 0.321456 0.248572 
-0.015086 0.326292 0.251032 
0.054938 0.322768 0.249308 
0.063694 0.323052 0.249564 
0.080030 0.324420 0.251004 
0.119846 0.324200 0.253344 
0.124890 0.323148 0.252780 
-0.064410 0.314700 0.246264 
0.001790 0.328560 0.251972 
0.086034 0.327128 0.251812 
0.139214 0.325744 0.249580 
-0.083610 0.311660 0.244252 
-0.014966 0.329536 0.250312 
0.012594 0.329340 0.252044 
0.030074 0.326352 0.250232 
-0.023398 0.328304 0.249736 
0.004086 0.332100 0.251632 
0.071282 0.334360 0.250232 
0.123614 0.331520 0.254108 
0.125110 0.330780 0.253980 
-0.034774 0.326212 0.248760 
0.020318 0.335316 0.250628 
0.024630 0.334520 0.250288 
0.079302 0.335500 0.250936 
0.100586 0.334760 0.253984 
-0.027774 0.330544 0.249292 
-0.004810 0.336340 0.250320 
0.079162 0.337928 0.251160 
0.092506 0.336996 0.252652 
0.101538 0.337240 0.254128 
0.103234 0.335540 0.254500 
0.135834 0.334856 0.252560 
-0.048894 0.324128 0.248208 
0.108626 0.339300 0.255028 
0.124522 0.338796 0.255108 
-0.020390 0.335028 0.249208 
-0.003082 0.340524 0.249784 
0.030450 0.341476 0.249176 
0.031690 0.342780 0.248900 
0.144702 0.339832 0.249552 
-0.017762 0.337240 0.249424 
-0.009362 0.340560 0.249360 
0.028570 0.345924 0.249116 
0.129738 0.341824 0.254480 
-0.016930 0.338728 0.249424 
0.008166 0.346992 0.249204 
0.114406 0.346440 0.255320 
-0.012522 0.341188 0.248868 
0.010350 0.348072 0.248808 
0.104362 0.347928 0.254620 
0.070446 0.350940 0.249492 
0.133934 0.349976 0.253856 
-0.007786 0.345336 0.248824 
0.040366 0.354660 0.248380 
0.020258 0.355292 0.248688 
0.073578 0.356088 0.249668 
0.104354 0.353348 0.254288 
0.109390 0.353744 0.255128 
0.121190 0.354132 0.255252 
0.073142 0.357604 0.249592 
0.083246 0.357792 0.250996 
0.095458 0.359028 0.253588 
0.011802 0.356092 0.247896 
0.074142 0.360556 0.249500 
0.098438 0.359628 0.254068 
0.132914 0.360068 0.254420 
0.143934 0.359736 0.251764 
0.011870 0.357444 0.247484 
0.094210 0.361876 0.253188 
0.150298 0.360724 0.249416 
0.075326 0.364276 0.249228 
0.078718 0.363448 0.250116 
0.004282 0.356636 0.248060 
0.080830 0.365340 0.250612 
0.082826 0.365372 0.250824 
0.096794 0.366300 0.253972 
0.112346 0.367084 0.255776 
0.140750 0.363784 0.252972 
-0.008538 0.351412 0.248980 
0.144394 0.364452 0.252088 
0.080170 0.368240 0.250188 
-0.003842 0.355840 0.247912 
0.007982 0.360168 0.247556 
0.013070 0.362232 0.247452 
0.089738 0.369780 0.252316 
0.029902 0.367428 0.246364 
0.043590 0.369916 0.246716 
0.115434 0.373072 0.256564 
0.123378 0.373076 0.257288 
0.035642 0.369844 0.246120 
0.056350 0.371284 0.248080 
0.139026 0.372540 0.255020 
0.004486 0.360868 0.247868 
0.017106 0.365420 0.246756 
0.077178 0.373268 0.249576 
0.090094 0.373504 0.252604 
0.124758 0.375588 0.257652 
0.135342 0.373956 0.255540 
0.151158 0.371260 0.250652 
0.145314 0.373144 0.253224 
0.013218 0.365772 0.247284 
0.048930 0.372976 0.246604 
0.063706 0.373916 0.248508 
0.079414 0.374664 0.250472 
0.085258 0.374804 0.251500 
0.088958 0.375512 0.252812 
0.123246 0.377876 0.257128 
0.083262 0.375740 0.251216 
0.087598 0.376440 0.252048 
0.110178 0.378240 0.255900 
0.125094 0.379856 0.258324 
0.127202 0.379192 0.257328 
0.137146 0.377460 0.255868 
0.142518 0.377096 0.254752 
0.146066 0.376636 0.253240 
0.031654 0.372528 0.246572 
0.058774 0.375536 0.248084 
0.101994 0.379660 0.255368 
0.051334 0.375356 0.247048 
0.079326 0.378320 0.251624 
0.083958 0.378612 0.252288 
0.087322 0.379224 0.252948 
0.096998 0.379960 0.254252 
0.109250 0.381916 0.256644 
0.029614 0.373296 0.246760 
0.058090 0.376632 0.248600 
0.075878 0.378456 0.250892 
0.083226 0.379220 0.252224 
0.046594 0.376284 0.246912 
0.060846 0.377804 0.249104 
0.079446 0.379460 0.251868 
0.086938 0.380440 0.253112 
0.115210 0.384172 0.257172 
0.057470 0.378484 0.248916 
0.053662 0.378560 0.248212 
0.057202 0.379100 0.248640 
0.080670 0.381752 0.252068 
0.056794 0.379968 0.249484 
0.091898 0.384128 0.254908 
0.087462 0.384376 0.253996 
0.126606 0.387636 0.259892 
0.034706 0.379300 0.249112 
0.052638 0.381572 0.250052 
0.048110 0.382776 0.250560 
0.117606 0.389788 0.259312 
0.057546 0.383952 0.250780 
0.110194 0.390104 0.258628 
0.120626 0.390164 0.260020 
0.045282 0.383956 0.250748 
0.111662 0.395864 0.259504 
0.134226 0.398284 0.260380 
0.145738 0.397076 0.258136 
0.133478 0.398464 0.259460 
0.123034 0.399120 0.260764 
0.120134 0.420180 0.254648 
0.118190 0.425376 0.251772 
-0.067594 0.273208 0.243872 
-0.056706 0.275768 0.246232 
-0.070522 0.278700 0.243424 
-0.055638 0.279768 0.246900 
-0.071790 0.281684 0.243712 
-0.068694 0.282672 0.244596 
-0.050686 0.284736 0.248824 
-0.047914 0.282944 0.248780 
-0.046074 0.285184 0.249504 
-0.040882 0.285580 0.249844 
-0.019694 0.282756 0.249628 
-0.038362 0.287584 0.250140 
-0.026986 0.286316 0.250240 
-0.054034 0.289908 0.249052 
-0.042118 0.291216 0.250236 
-0.023298 0.288748 0.250736 
0.006834 0.289204 0.249620 
-0.082730 0.290268 0.241592 
-0.032330 0.291172 0.250960 
0.021166 0.290752 0.248624 
-0.051998 0.296184 0.249420 
-0.048090 0.295180 0.250024 
0.029238 0.294544 0.248552 
-0.021146 0.297072 0.251764 
-0.041386 0.299424 0.251004 
-0.020786 0.298116 0.251824 
0.015806 0.298732 0.250340 
-0.081138 0.298664 0.243036 
-0.028402 0.305040 0.252188 
-0.006962 0.301604 0.252392 
0.014134 0.301492 0.250992 
0.022218 0.301044 0.249884 
0.027766 0.300856 0.249248 
-0.053506 0.303460 0.249112 
0.126194 0.302392 0.248760 
-0.078046 0.302096 0.243756 
-0.026238 0.308548 0.252404 
-0.025170 0.307648 0.252356 
-0.004510 0.307908 0.252928 
0.029190 0.304268 0.249452 
-0.068102 0.302800 0.245440 
-0.031742 0.309612 0.251372 
-0.024530 0.311744 0.252408 
0.021842 0.306360 0.250600 
-0.043718 0.310200 0.249548 
-0.036974 0.312232 0.250356 
0.091014 0.310236 0.250816 
0.100086 0.310612 0.251512 
-0.027814 0.314960 0.251536 
-0.008146 0.313908 0.253108 
-0.005626 0.314060 0.253216 
-0.071434 0.306968 0.245692 
-0.057118 0.309880 0.247700 
-0.048978 0.311076 0.248952 
-0.025014 0.316636 0.251456 
0.029430 0.311832 0.250328 
0.035322 0.310840 0.249524 
-0.031006 0.317012 0.250712 
-0.005494 0.318404 0.253188 
-0.057878 0.311888 0.247188 
0.020498 0.316272 0.251644 
0.030790 0.315812 0.250412 
-0.007718 0.321860 0.252908 
-0.002482 0.321620 0.252960 
0.084290 0.320284 0.251172 
0.101098 0.320848 0.252740 
-0.100562 0.308320 0.247156 
-0.098074 0.307632 0.245276 
-0.093810 0.308292 0.245036 
-0.065110 0.312072 0.246536 
-0.029626 0.322336 0.250272 
-0.017050 0.324472 0.251640 
-0.095670 0.309636 0.246940 
0.021962 0.322792 0.251848 
0.105602 0.323788 0.253428 
0.107238 0.324932 0.253740 
0.114418 0.324576 0.253792 
0.116406 0.324668 0.253696 
0.120346 0.324900 0.253600 
-0.099006 0.310492 0.248456 
-0.092630 0.310832 0.246592 
-0.086150 0.311020 0.244700 
-0.010306 0.328176 0.251796 
-0.004318 0.329236 0.251872 
0.117870 0.326804 0.253952 
-0.095190 0.311768 0.247648 
-0.092454 0.312256 0.246184 
-0.026534 0.326836 0.250044 
-0.018590 0.328316 0.250764 
-0.004274 0.330400 0.251836 
0.017430 0.329028 0.251816 
0.084918 0.329628 0.251960 
-0.028154 0.327856 0.249712 
0.005638 0.332168 0.252584 
0.017838 0.332432 0.251776 
0.024198 0.331192 0.250756 
0.050102 0.331084 0.249464 
0.089346 0.332112 0.252636 
0.115294 0.331292 0.254724 
0.121210 0.331008 0.254548 
-0.031702 0.327644 0.249588 
-0.001234 0.335580 0.251292 
-0.029294 0.329108 0.249680 
-0.015394 0.334288 0.250116 
0.129658 0.335480 0.254344 
0.007922 0.340248 0.251072 
0.058654 0.340944 0.249600 
0.065722 0.340660 0.249852 
0.074318 0.339076 0.250604 
0.108254 0.338832 0.255228 
0.120750 0.338964 0.255880 
0.125846 0.338852 0.255232 
-0.023138 0.333728 0.249772 
-0.015710 0.336168 0.249656 
-0.003802 0.340052 0.250012 
0.010866 0.341664 0.251240 
-0.018026 0.337224 0.249952 
-0.015958 0.337736 0.249888 
-0.012382 0.339304 0.249872 
-0.010906 0.338696 0.249532 
0.015366 0.344064 0.250668 
0.120502 0.343600 0.255952 
0.134766 0.342552 0.254056 
0.059182 0.347060 0.249364 
0.066034 0.347684 0.249608 
0.084314 0.346672 0.251988 
0.085462 0.349540 0.252132 
0.127010 0.349008 0.255480 
-0.008542 0.344404 0.249280 
0.108514 0.349588 0.255320 
-0.012786 0.343012 0.249548 
-0.010226 0.344324 0.249064 
-0.007326 0.345968 0.249236 
0.021702 0.354224 0.249124 
0.139854 0.353576 0.252892 
-0.009726 0.345792 0.248956 
0.074290 0.356260 0.249916 
0.104870 0.353868 0.254732 
0.109938 0.355160 0.255744 
0.129662 0.354856 0.254876 
0.066790 0.357068 0.249276 
0.071486 0.357060 0.249592 
0.075338 0.357912 0.250088 
0.079862 0.356664 0.250480 
0.137794 0.357008 0.254060 
0.141462 0.357192 0.252904 
-0.006198 0.348564 0.248832 
0.046854 0.359468 0.248412 
0.115926 0.358732 0.256184 
0.078442 0.360748 0.250432 
0.114018 0.359868 0.256168 
0.022602 0.361188 0.248064 
0.084746 0.362760 0.251592 
0.115290 0.363152 0.256196 
0.123974 0.362664 0.256384 
0.137902 0.361508 0.254592 
-0.010630 0.349636 0.249212 
0.011094 0.358260 0.247956 
0.080402 0.364276 0.251284 
0.014682 0.359908 0.248056 
0.022534 0.362628 0.247680 
0.062146 0.366264 0.248916 
0.073526 0.365972 0.249380 
0.079870 0.364988 0.250424 
0.083882 0.364916 0.251540 
0.086522 0.365080 0.252012 
0.121018 0.367328 0.257072 
0.146082 0.364340 0.252048 
0.005666 0.357912 0.248580 
0.010058 0.358808 0.247904 
0.037430 0.367008 0.247128 
0.077222 0.367088 0.250008 
0.120882 0.369548 0.256640 
0.135794 0.366852 0.254996 
0.032170 0.367000 0.246500 
0.054534 0.369016 0.248016 
0.082470 0.367456 0.251112 
0.084494 0.367712 0.251668 
0.139330 0.367752 0.254872 
-0.002286 0.356520 0.248728 
0.013642 0.362068 0.248088 
0.019986 0.363872 0.247216 
0.067506 0.368656 0.248456 
0.097954 0.370204 0.254808 
0.060278 0.370880 0.248508 
0.063790 0.370636 0.249008 
0.099078 0.371716 0.254828 
0.104394 0.372652 0.255896 
0.125578 0.373832 0.257920 
0.136034 0.371396 0.255912 
0.137354 0.370380 0.256140 
0.032914 0.369368 0.246232 
0.074622 0.371012 0.250212 
0.082626 0.371392 0.251956 
0.110802 0.374132 0.257228 
0.147730 0.370640 0.252436 
0.150790 0.370384 0.251180 
0.006514 0.361664 0.248612 
0.054386 0.372280 0.248400 
0.069410 0.372268 0.249044 
0.097094 0.373912 0.254564 
0.106162 0.374744 0.256140 
0.147186 0.371928 0.253452 
0.067746 0.372772 0.248932 
0.130226 0.376816 0.257884 
0.145798 0.373636 0.253956 
0.149306 0.373884 0.252396 
0.135462 0.377212 0.257504 
0.150934 0.375172 0.252140 
0.014790 0.366524 0.248056 
0.086102 0.375732 0.252880 
0.107850 0.378976 0.256888 
0.132854 0.379360 0.258412 
0.146946 0.377092 0.254468 
0.017866 0.368464 0.247564 
0.097706 0.378016 0.255504 
0.129478 0.381216 0.259484 
0.107734 0.380608 0.256856 
0.057186 0.375760 0.248600 
0.062394 0.377628 0.250184 
0.071954 0.378500 0.251496 
0.092586 0.380844 0.254948 
0.027194 0.373812 0.248352 
0.031098 0.375244 0.248236 
0.106258 0.383992 0.257176 
0.110094 0.384208 0.258048 
